81.36296        106.40032        115.50039
80.73533        106.19613        135.68232
85.41845        92.82232        124.94008
83.76088        110.70666        114.42790
85.82711        113.15531        104.46753
86.81123        114.68651        146.17053
85.37439        122.14321        126.03179
91.50423        100.51500        110.34972
90.58035        105.04280        106.74190
100.75839        113.66245        129.53435
91.25692        163.08963        132.86668
95.10521        110.55952        155.19807
98.29412        115.77286        143.39420
94.79996        124.28361        141.83527
95.70656        135.61944        102.61939
94.65158        140.05452        108.75355
98.66990        164.80830        131.30383
98.69143        175.19090        135.20624
102.81280        88.84663        137.13203
100.29583        91.18564        110.33382
102.99944        101.26380        131.24153
101.07250        106.43253        135.58064
103.40503        120.25928        90.68728
100.68385        129.97610        92.44845
101.03289        137.57206        117.96978
107.72132        156.13594        135.25923
108.83622        166.01771        140.86900
100.83862        167.83262        125.93955
106.16697        173.33448        112.77704
100.97025        176.51084        120.00509
108.11583        81.05634        141.34415
107.19335        85.43423        129.91746
107.99139        92.57250        119.61538
105.33012        97.62504        126.08984
106.55082        98.69735        141.19510
108.72054        109.32652        144.43535
107.35305        114.81400        96.65295
106.53109        118.32274        133.60654
107.88312        119.81061        120.67419
106.40371        120.10993        126.03847
108.44904        137.11596        109.70101
108.04761        140.30043        115.83381
108.48035        160.90077        126.03545
113.87741        177.93307        119.24729
109.34602        177.53993        145.12317
111.86468        90.96407        131.59840
112.83269        101.94078        104.38394
115.55156        98.64720        131.88713
113.58352        109.57574        152.56427
111.94911        113.99926        108.66025
108.88104        116.31299        116.20629
110.40189        116.22881        142.68463
109.13878        119.95624        101.16277
110.44996        122.15427        106.04026
111.00055        128.79810        113.28508
112.79491        131.59827        100.83691
110.77150        131.71426        145.55781
110.70921        171.43521        153.61869
116.48217        187.21372        142.38234
112.12981        185.51362        134.98720
113.73096        79.69478        154.78277
115.90042        85.18381        110.63702
118.58269        83.83716        135.58639
116.52941        91.01684        125.72411
116.11998        90.98987        141.41312
115.83369        94.92220        110.29843
116.14193        96.60871        145.82627
119.06382        98.68708        119.31644
115.91262        101.09389        149.49766
116.10493        109.36849        132.35010
114.20564        111.09245        101.37165
117.20252        115.99934        125.81547
116.84838        115.91870        91.08031
116.02894        129.26533        96.67261
116.56204        125.77009        124.13265
116.59967        125.77497        141.71885
118.30473        126.14752        151.31946
116.22831        137.43903        81.36406
119.08029        134.49530        145.53828
117.22486        139.92213        107.87859
119.10339        142.61016        145.31984
115.93328        155.37643        134.13903
117.18303        167.99500        157.09415
116.64246        180.46472        140.82670
116.06506        191.36364        127.31829
118.78435        86.00484        115.87847
119.92582        106.63518        141.60875
120.82468        112.80349        145.42933
121.01618        116.75386        106.54664
120.55839        118.34062        151.01065
120.36671        119.84314        110.50258
118.80361        120.73931        116.20041
119.96144        125.89369        90.59059
120.10728        126.20650        145.52505
120.73871        132.64930        113.93249
123.91814        131.57190        160.64897
120.07061        138.52776        155.64531
120.73841        142.82880        87.59038
121.03133        139.49212        115.58272
120.31102        145.96818        150.80865
121.04711        155.18060        159.53195
120.67109        159.37318        141.18760
120.55482        162.78890        151.45002
121.04549        176.01117        126.19772
121.56847        171.20802        143.10063
124.42651        182.52051        131.38957
120.49097        185.87716        153.68123
120.25223        190.43669        148.19695
126.11663        77.90875        141.34363
128.45478        82.82570        131.39199
125.82226        96.03552        120.74377
127.79595        97.61137        126.02713
125.44823        100.12251        102.34021
125.31263        100.98325        110.40541
126.62640        101.07140        131.22366
125.90584        109.25508        113.26128
126.15211        106.54070        135.93809
126.36764        116.09599        116.57832
125.82311        124.04680        83.83087
126.34235        120.59485        120.18433
126.13428        120.57676        139.40564
126.72367        125.43070        111.22995
127.89119        125.92039        124.88664
127.29522        127.97832        151.53977
126.31518        132.10887        120.66808
127.94826        135.75827        82.56245
126.33858        137.00612        105.27289
126.41475        140.25257        137.73773
130.90115        145.47845        131.98020
126.22274        146.01631        145.67134
127.81349        145.88886        154.65405
126.02027        153.26104        140.16819
126.64951        157.02319        131.34642
134.16737        157.79157        150.20409
125.94194        160.77748        141.11466
126.03712        166.47148        126.01865
126.07335        170.83843        135.50100
127.47849        176.45446        145.73428
130.71918        180.85209        152.72473
126.08078        180.57777        117.54324
125.95198        185.67998        153.70820
125.58327        190.41805        129.41019
126.10119        191.09117        145.39123
132.29337        79.51940        138.63225
131.70964        91.02997        132.87741
129.51813        90.46431        161.40877
132.04468        101.01582        139.42699
134.62241        114.28464        107.35118
132.65536        110.61888        143.69231
128.69531        115.85039        96.72857
131.39585        117.43509        140.56267
134.64664        117.05389        150.82114
131.40961        123.96406        85.66750
131.56895        125.65669        91.03615
134.01118        127.14650        98.72137
128.23208        125.67030        144.94196
132.51757        125.97842        167.91085
131.42398        134.19792        145.54535
132.69788        135.71750        154.39092
131.29495        139.76681        139.39277
131.46463        141.17013        161.04581
131.82989        146.26436        101.33562
131.44895        145.39856        145.78142
131.08552        153.40604        145.50717
131.32406        149.71125        160.39154
135.23662        151.68266        131.68182
129.65726        160.65882        129.52775
130.20551        164.55111        149.97073
129.91933        160.59972        160.42475
134.52742        169.56706        125.83669
135.03672        167.96243        135.25155
131.56355        171.10530        153.79197
133.89918        177.36147        120.61975
132.37082        185.25849        134.65230
137.46178        180.37294        146.60463
131.23856        188.12913        120.52574
133.31429        185.64908        125.40197
133.96187        191.81187        140.89776
135.76644        79.56639        148.44513
135.50113        130.10822        107.77017
135.70260        126.28902        160.90723
135.88353        131.24731        118.30065
136.26949        131.47594        125.78161
137.94651        131.64512        155.24943
135.56718        135.84439        137.32357
140.09109        135.25074        161.17117
135.51767        141.83420        115.95179
135.56180        143.29937        135.58049
136.03033        141.55568        144.94820
136.08622        141.62462        164.85422
135.88776        151.08129        156.81746
140.56430        169.67365        151.63062
138.68046        176.15998        135.66524
141.99471        99.15246        111.84860
141.31724        110.71718        100.93050
140.96212        116.79606        98.84649
141.61399        122.12317        106.03724
141.83764        136.01022        151.35752
141.51987        138.50203        126.18148
141.58088        140.76780        131.61639
139.59375        145.56900        90.01734
140.64132        147.63074        119.18758
141.12879        146.19908        135.23938
139.93105        145.44948        145.25456
142.89900        145.12327        154.25586
143.00354        150.99675        125.94644
144.06848        156.20099        135.70134
141.31884        161.90699        121.61174
140.85532        160.95120        131.65011
142.72176        166.35117        130.05401
141.40190        167.12142        136.07315
141.08972        166.80853        143.52062
143.42273        188.00154        136.32519
145.71980        100.84109        96.41837
149.01081        108.58852        107.00395
145.93973        116.75658        91.21321
145.21497        127.47334        110.56780
147.33214        133.97712        117.16124
145.70404        139.70910        90.98187
147.48027        141.42102        119.90629
144.98536        151.26506        131.32730
145.97236        158.69837        141.09853
145.53132        160.55717        125.81358
147.66346        171.15290        145.78043
149.27371        176.46155        143.77360
151.24539        106.27836        95.23598
153.67163        100.83574        106.78506
152.13011        118.65423        104.43226
150.03303        128.68690        134.15238
151.00223        145.11982        120.67702
151.80906        162.28736        146.95546
152.98274        184.89146        135.45129
156.66622        99.68047        99.70367
158.80252        106.01926        101.11458
154.90274        120.43889        90.94465
156.03425        120.88516        115.74443
155.07206        132.29398        123.93077
155.97412        141.49077        126.44434
155.80517        145.46274        100.35677
160.57941        99.24032        114.16244
161.24179        109.21834        107.07314
164.81371        116.17458        99.32753
165.20384        126.41997        125.00804
164.89796        135.56405        99.29522
165.42707        136.92992        124.77325
170.12245        115.80445        110.13648
171.72435        127.35184        103.63181
