90.01120        108.98439        230.09108
100.11028        110.36551        232.47369
98.21632        97.09071        255.67887
96.35317        100.59903        238.04434
95.34759        105.27589        250.21081
94.41809        109.98241        239.20179
102.24371        122.46393        222.07891
99.73294        93.51812        250.02290
103.23181        100.22627        243.32625
101.86901        110.05682        225.47394
103.83403        108.19524        248.67362
105.61730        122.97123        210.77842
100.04426        187.01416        104.70177
108.54468        205.81385        111.44125
104.92447        87.14340        230.25193
105.13025        94.40344        244.83017
109.61688        99.94858        234.39584
107.49741        101.01295        258.63461
112.62290        116.41440        221.29390
102.90958        114.98832        225.06457
109.32559        135.84339        217.27675
105.13396        161.62994        134.52857
107.55517        187.10705        135.72423
104.74657        188.46170        110.39059
109.92493        84.67443        234.90526
110.05221        89.43638        241.87004
112.45459        95.18714        244.34967
111.98329        95.02813        251.74456
108.33086        108.80511        259.16071
118.28587        131.81288        219.06878
110.20157        151.39552        120.28477
109.74810        153.43305        125.31946
110.09720        152.53439        115.27901
114.01444        161.34757        130.79618
111.89108        191.33588        97.98754
110.33584        189.76287        116.14958
119.00862        200.89998        101.47814
119.56629        191.85059        107.70479
111.77622        196.59537        131.37330
117.69969        205.14231        127.38721
116.47000        216.91431        113.62404
118.61220        93.93475        235.88886
118.18788        102.18819        246.33872
115.08915        105.13291        241.88162
112.85838        109.90863        239.69281
121.45930        111.62881        244.89579
116.46173        124.08259        205.34080
128.72854        127.92648        225.90852
114.11427        134.20055        162.81801
115.49979        139.60991        142.97456
122.21071        138.28445        150.52304
115.51760        140.06593        210.26893
114.99492        141.19891        219.32629
119.65946        150.25392        127.52415
113.11752        150.40388        170.50926
114.02090        150.14027        176.46245
114.96104        154.94486        120.31379
115.55531        160.17781        118.85650
115.45007        156.67347        144.39947
119.28771        162.30363        106.62556
115.74014        165.03725        120.32538
117.36961        172.11259        127.45120
115.03418        170.32902        134.90025
122.75384        164.28680        185.53126
115.27154        185.73860        129.02716
115.28642        184.53579        139.61969
114.61794        196.55742        94.85698
116.53001        205.05380        95.21260
117.07241        216.17096        125.85647
120.71242        97.41642        115.02127
120.81034        106.84226        112.06056
135.31796        108.69711        98.92587
120.59513        107.83363        120.17254
127.67195        108.75483        125.73086
127.42812        122.59166        98.07054
119.82622        121.87847        145.23430
118.01766        121.78524        210.11245
119.81239        120.29902        217.80978
122.45267        130.75009        150.25818
119.05614        133.98305        137.94880
120.47361        129.04898        154.93207
125.50306        127.61439        158.76960
120.13317        135.07245        210.47982
121.15315        139.59337        132.68012
122.64511        142.32300        205.52056
120.26816        146.68766        149.73931
122.84840        156.23336        175.37589
127.45719        143.92159        183.78769
118.30852        154.07928        83.48614
120.83192        156.07474        100.43638
118.11351        155.40184        139.65997
120.07346        154.70240        198.07283
120.86478        160.83480        120.01207
120.17367        166.74597        98.62157
123.09123        177.74597        137.52651
120.50277        174.51322        156.32426
129.11038        191.11472        122.30221
121.95726        188.38914        95.08219
120.34779        207.25035        114.40468
118.10370        205.38018        120.62530
120.90424        208.47949        240.74595
120.33497        205.07985        244.89208
120.13548        211.42070        234.67630
130.43744        209.35936        100.51794
120.58754        215.12956        104.98943
120.11192        217.00263        120.36881
125.91405        89.91064        105.51037
125.07454        94.77555        104.59902
131.22938        97.88125        120.95325
123.96031        99.47627        100.19863
127.20163        104.13280        241.18599
125.44274        115.06034        105.24177
128.58045        118.62651        194.47589
127.67045        115.29704        225.54500
131.14460        128.34918        138.93264
126.67616        120.84994        154.86426
127.54632        127.51785        209.67910
125.69471        125.86429        239.64946
126.35373        133.04009        167.08216
125.37031        144.56238        139.63160
126.99191        146.66349        169.72562
125.79097        150.18198        143.53569
124.96855        149.89255        153.75579
127.55978        149.84038        194.44196
125.08132        149.93787        200.13693
125.50230        161.00841        167.30742
125.71435        163.96816        114.06889
127.41804        165.16633        133.27451
125.60141        165.03390        208.63953
125.46923        171.70298        104.69053
123.07031        168.88211        109.82642
125.04760        170.40292        133.32594
127.95958        170.26719        175.47260
127.44857        175.53936        126.93383
128.64547        177.14072        224.96379
128.37074        181.26874        112.59572
125.45455        180.57902        127.37079
127.58569        182.49678        139.28726
125.87386        188.41238        134.75053
125.28733        194.88638        96.50468
127.57131        194.85919        110.17076
133.02376        196.83828        250.35494
128.08253        205.83802        252.41662
124.08604        209.77652        110.14569
129.47870        211.03838        116.40851
126.91919        209.93024        250.02387
125.59582        209.76383        261.61003
128.57541        217.95829        254.13926
125.62257        222.99791        239.65502
129.27959        95.03011        101.36751
129.62677        104.75711        115.28716
129.70665        108.71570        99.68333
129.74208        110.29468        105.40228
133.87523        113.13900        119.44754
131.79315        113.72699        214.68770
132.91653        119.14440        127.94719
129.47239        115.47549        234.67537
130.70565        121.34918        243.19154
128.23103        113.88899        248.52154
134.30019        123.99401        108.44135
130.85393        120.51705        159.70069
129.40465        120.53663        249.52279
129.48342        134.56310        160.03572
131.58240        134.89159        194.58672
130.23584        136.70319        230.39882
129.42020        140.10714        142.06496
128.64611        139.71004        159.19558
129.75617        139.73870        199.76444
130.92066        146.05818        155.02832
129.57303        144.64608        162.60103
129.64119        148.40685        175.36252
130.91558        149.77813        180.38067
129.67510        145.14212        199.86778
133.69726        144.64445        219.24050
131.59403        148.61548        149.71716
134.83672        150.23460        210.09559
132.69883        150.08332        216.06229
131.28105        155.77831        109.23145
135.09964        158.62297        194.43890
134.53581        156.43792        207.36773
128.85736        156.84711        210.87824
129.20518        160.16414        79.68247
129.50712        159.86378        92.14054
127.48579        158.65927        144.90251
129.03709        165.26816        84.53263
128.08041        164.23156        160.15717
133.66861        167.19543        201.54288
129.57224        170.58293        170.34803
129.24917        170.05692        182.66484
129.39983        170.12730        189.72640
129.40397        169.23207        194.85517
136.76552        179.74428        145.08539
131.21971        183.55539        217.62131
136.26004        177.98750        231.99443
130.17551        189.05283        74.07938
129.21255        189.49996        84.96713
129.14032        189.69988        138.44678
129.61466        188.33679        225.39429
136.56301        189.61306        231.41367
133.09405        193.73147        134.10957
129.57108        199.63961        113.94395
129.63280        199.83990        133.52840
134.01850        211.07377        240.70182
128.27122        210.07477        244.69488
128.01220        213.23116        234.76295
129.32178        215.13759        241.81354
137.49152        221.67806        261.65239
133.85722        110.16965        163.76802
134.85666        115.48716        162.97678
135.81016        116.74722        224.95919
141.01793        125.99889        122.90000
137.65202        126.13230        151.57309
137.71067        125.04148        230.95659
134.72988        125.11108        215.38673
143.82519        132.37090        187.98928
134.84419        129.53404        208.93496
134.81052        129.40769        239.74933
136.21881        134.73526        149.93027
134.53555        134.31668        158.90147
134.59184        132.61881        165.49613
139.46768        133.94407        199.90346
135.67117        134.52688        214.08905
134.60102        134.35184        234.29890
140.84705        142.70542        126.39879
134.45392        138.40956        143.02024
134.46469        139.49209        193.61303
139.60824        142.75083        205.66251
137.53010        146.55205        135.55843
139.72822        144.31339        168.76503
134.27118        144.70554        190.99125
134.54421        154.52258        120.28890
133.21808        149.93759        140.03521
134.47166        148.69580        144.85777
138.28156        151.83027        156.75231
133.33616        151.11499        185.78131
134.51446        149.94446        205.06168
137.14229        158.79454        170.23658
134.76616        154.98360        219.05428
138.89512        159.43183        135.88735
137.06110        160.05919        150.10587
134.92726        159.67904        180.24443
133.43550        162.84294        89.93769
133.44956        165.28437        110.42107
136.47637        166.18301        162.37276
139.10967        168.91252        185.02657
134.65725        179.85531        134.59951
134.35450        174.01862        166.64136
137.76575        175.37783        219.60019
143.42779        179.19915        194.14353
136.06231        178.39943        239.36628
134.01047        184.08302        107.12775
136.85985        186.43444        156.19224
134.86247        186.02223        245.00554
134.90513        191.69561        164.94326
136.01972        191.19073        200.14674
134.69254        189.36361        239.51923
135.40282        197.89019        101.58338
134.53234        197.57031        156.10237
137.98806        215.15241        255.22699
134.68497        219.91647        249.87706
136.98701        224.21269        244.39168
138.96254        223.30315        253.73519
139.62711        91.09340        105.55519
138.92408        105.23397        114.37655
139.88118        105.04207        124.09526
138.26849        110.23553        110.01450
139.57436        115.12788        104.76530
142.62078        117.79569        134.79096
141.85903        117.52103        220.44346
138.21114        120.20217        104.64885
140.66840        119.29193        184.30625
139.64811        120.32029        213.63338
139.79792        125.49099        215.44920
139.35168        129.39031        134.43081
143.26908        142.27259        149.86908
141.90613        142.83853        189.97547
142.42439        143.68300        155.03631
141.43238        144.48710        160.07635
142.21136        144.74861        216.73174
139.79376        144.87087        239.63634
140.05229        149.92561        115.11982
139.83999        150.15558        194.17756
139.79558        154.76630        120.40233
143.32153        153.45158        179.28975
139.36031        156.54098        189.45532
139.41830        155.18664        215.28300
140.92532        158.16436        88.95496
139.43929        160.34758        100.88278
140.06004        159.90303        121.80473
140.62276        179.30213        84.47404
139.87765        180.05254        213.88229
140.63621        182.69270        224.01328
142.68589        180.99024        244.74847
139.04625        182.63580        249.62764
139.47908        184.88649        136.90067
142.36308        191.72669        138.81822
139.93423        191.90976        162.74269
139.45904        189.77913        220.22676
139.68303        198.64346        228.52498
140.07757        200.29747        149.67563
143.02480        214.12645        221.34450
143.22422        218.61478        235.84704
139.71680        214.82387        244.56511
138.54554        214.01297        249.84303
144.84864        91.94341        105.98086
144.72910        100.36449        110.19743
144.56170        99.78669        125.56921
149.36942        104.77294        94.62624
144.68014        111.78553        120.36921
146.43037        116.57529        91.79788
145.31337        113.86092        185.02351
144.94105        123.20909        112.74953
145.10013        119.14451        125.69468
145.15307        124.13521        80.61643
148.15221        126.46205        134.56609
145.07095        125.42049        143.40426
144.96815        128.07428        102.94804
145.50763        132.27298        141.63033
143.58337        129.25779        215.25253
145.33999        142.06463        142.33733
146.27682        139.50078        180.52044
144.52913        139.49921        194.98564
144.94324        145.17995        205.17448
147.81627        144.13954        210.02607
144.58669        151.89322        120.46572
144.77747        152.26602        127.52581
144.96582        152.29497        134.53248
146.21454        152.49584        139.70444
146.25673        152.41078        144.86014
147.18580        152.94567        156.69659
145.89244        151.42335        170.25300
143.67023        150.22997        223.89787
147.02708        152.53707        250.19993
146.30583        153.55232        149.86850
144.89936        166.74147        179.93735
144.65261        165.00121        195.91724
145.03090        167.12615        89.87405
146.07617        173.59637        130.84139
147.29950        171.24205        143.43352
148.43456        171.17856        149.79598
145.07579        170.39337        196.99030
145.11477        170.22846        210.56370
145.09037        173.11555        85.07020
145.87996        175.35750        100.87170
143.59551        174.93969        199.97653
143.60166        174.11144        204.93722
143.39503        176.56561        214.97936
145.19818        175.60818        225.12251
144.59259        175.27409        237.56940
147.39855        183.22211        150.33049
148.79797        179.87394        210.77541
145.70857        184.87804        171.84755
144.84458        184.64092        230.01405
144.80473        189.35287        152.96266
147.05777        195.30035        162.77291
149.18959        189.08179        170.90495
144.84529        189.59189        210.38083
144.43436        188.55988        220.01257
146.48648        193.34970        235.41489
148.76384        196.21883        154.80429
144.88458        198.10402        218.70334
147.15488        199.91032        225.31389
143.50716        204.75861        151.32640
154.00522        204.67120        216.76599
144.72327        208.60598        225.63915
146.17294        220.13240        245.16679
145.07153        223.56171        249.26469
149.87236        102.89773        112.92950
151.81354        100.23574        130.46785
150.55433        110.82191        123.45205
149.82639        119.51254        113.37907
149.95123        122.31719        105.15399
150.01454        120.40786        124.41145
150.99379        119.14099        154.74234
152.89479        126.14964        168.66291
152.87551        125.13522        185.70702
152.00128        125.08089        194.80693
150.09983        130.23513        200.03229
151.34153        123.93722        205.13748
149.58772        127.24826        109.93154
157.05074        136.85392        155.03910
153.72867        135.23304        177.15237
152.65962        138.25047        194.77764
148.73238        142.29104        134.70859
149.92912        145.00197        179.02334
150.43663        153.67987        230.45503
150.25576        155.44907        238.43344
149.50014        154.77422        245.12007
149.59937        161.48698        181.88414
149.08971        162.13648        210.15977
150.35527        165.39232        194.59819
150.24081        165.24997        201.23513
152.30437        165.11911        217.78758
150.09458        172.24491        158.40584
150.76393        172.48519        170.23493
149.67987        170.44358        192.77832
149.57793        170.19728        205.37692
149.76734        175.43156        90.21530
150.36158        175.25989        139.94544
150.33828        172.93581        165.24680
152.61573        172.98768        175.23585
150.57005        178.83368        233.12453
153.45963        180.99340        129.37610
149.52147        185.04593        84.81332
150.01552        184.49584        160.63819
153.04477        184.43152        180.34360
153.25725        184.15634        222.79627
151.23816        189.49328        92.48507
154.60905        189.88849        138.66712
152.51817        189.78808        150.73420
149.72461        189.33443        165.06024
153.26966        189.76759        222.02068
148.61508        189.86623        230.97638
148.67885        194.70439        170.44360
150.58608        196.27992        220.36102
153.73607        197.54092        140.82387
149.91132        207.33926        228.83600
150.05270        216.74120        224.72235
154.11917        101.98262        105.51798
155.71392        109.35640        88.61623
156.32764        118.37116        135.26697
155.15783        123.99953        123.28836
163.55009        135.88844        211.15771
160.36774        131.07220        133.77324
159.08576        136.44408        216.57746
155.52392        139.33159        169.02049
154.82591        144.83344        185.82099
154.89285        153.41129        254.58560
154.83731        148.79366        258.83922
152.61753        151.11437        264.77014
154.84310        159.86259        224.39240
154.90471        155.46321        244.82897
158.15951        163.73980        209.36165
155.28056        160.36277        214.92049
157.91212        157.70366        249.69281
156.16231        167.00245        136.76020
157.30759        166.58920        144.99572
156.05686        164.88465        149.93404
156.03748        163.82445        154.96054
155.43727        163.15993        160.15501
155.36787        163.09124        167.80831
158.50868        164.97328        180.05708
155.88464        170.31847        125.06706
154.53328        170.06167        207.59076
154.80075        170.40916        220.64770
155.02600        174.18889        115.57424
156.51676        177.46791        136.75397
155.07043        176.60283        144.89435
158.29139        176.94945        150.94960
153.91430        175.34316        180.58344
154.91525        175.51457        194.31530
159.01512        177.47593        202.95042
156.12852        184.12648        165.01553
157.91010        180.45231        175.63468
155.33192        183.37740        189.51310
158.76627        186.88428        209.96519
155.14931        189.77597        215.20714
157.17566        194.36138        157.33864
154.78275        194.59833        225.47529
155.14036        197.94255        103.67652
155.81860        199.77631        167.05720
153.59271        199.85882        229.37316
156.62220        206.10406        228.25489
153.86959        209.85369        218.97841
161.90001        115.35136        126.78707
162.24935        125.18224        128.01952
158.06142        119.22379        144.91059
160.56799        118.14178        180.72117
160.25193        126.55009        160.45688
164.53304        127.38336        167.18316
160.41351        124.23425        184.75840
160.53352        129.75013        190.08766
162.22085        138.54429        168.09853
159.98541        134.49625        194.32938
162.31180        140.28465        138.02438
161.18468        143.34451        181.25631
159.69081        139.76398        189.35123
159.36830        144.72248        127.47577
159.98492        145.24002        225.42654
164.55026        150.19988        126.86500
160.78871        150.25076        151.61912
160.30354        150.19752        160.04117
160.50351        149.82577        166.45631
160.48045        147.61559        175.45069
158.71608        147.75229        247.21697
163.38214        157.17110        182.05485
158.86175        154.79616        239.31425
162.81512        166.41636        127.04594
159.36564        163.02180        229.48540
159.73456        170.13306        160.08696
162.70430        169.85717        165.39627
159.56916        167.09673        196.79349
163.87704        172.32816        216.01572
160.11690        175.44676        195.18480
161.24777        179.30128        120.42748
158.66420        180.30108        155.11673
158.77912        180.44034        160.15603
160.94335        183.18116        170.31233
161.55331        178.21117        180.39432
159.97919        180.86500        189.40209
159.66619        188.41440        143.41568
159.84188        190.15532        153.40404
160.14253        189.43737        215.04504
162.18214        195.04358        222.72354
159.97739        198.59860        147.77266
173.87083        121.91073        129.20871
167.67134        126.05956        175.14996
165.09263        125.46404        188.36194
163.19725        129.96002        151.43769
165.21679        133.22438        193.65789
168.32240        141.00995        122.06406
164.83304        141.09673        191.41884
162.15602        150.25491        144.77716
168.24394        143.69296        152.95664
165.10268        144.94145        205.03514
165.82248        146.23652        216.91216
166.12320        150.98046        120.57097
163.95111        150.11964        134.36545
163.03995        150.24376        139.67387
163.96059        149.48932        179.41100
164.80367        148.55386        194.59114
164.99860        149.69022        201.23574
164.76824        151.21780        210.22703
167.35119        162.64643        195.94749
165.27806        162.38626        210.15923
165.50744        165.33743        169.00162
165.21025        163.93722        189.64043
165.09420        166.15875        220.21909
171.60605        167.04612        159.03866
165.28286        170.39543        170.45921
166.68620        169.51012        177.13476
166.41308        171.11309        209.52430
162.87824        175.55734        115.73101
162.99544        176.98985        125.49545
162.84517        175.43705        184.45149
167.36025        172.91369        195.36551
165.07152        180.75561        110.17524
163.97931        181.53774        142.86248
164.50188        180.75687        198.07998
165.27927        183.29985        188.36165
168.92967        191.44818        130.81814
164.91378        188.33201        139.33767
165.18900        189.70549        153.74266
165.35444        193.39362        146.07912
169.10179        120.61650        120.44131
177.03568        122.46121        99.54475
170.23544        127.38096        119.79191
171.44601        125.46941        185.43486
170.37526        129.68449        201.21689
171.77177        134.47874        143.04821
170.53510        136.20097        179.20619
170.29246        137.33519        193.89904
170.76278        135.07843        200.15808
171.87433        140.27290        142.44349
172.48895        144.14191        206.65461
170.11472        147.30503        115.19560
173.03302        146.62054        135.73389
170.80033        147.96386        169.32984
170.83986        151.47746        155.06823
170.46360        150.11333        160.07573
169.87905        149.57609        189.92943
171.81580        150.02161        211.02637
174.83383        156.04739        128.87647
171.74995        156.07753        141.53136
171.74775        153.81411        149.83976
170.23993        155.16735        182.73006
170.28620        155.29685        197.80107
172.29716        160.13985        84.86133
170.52303        157.62994        99.71528
172.34773        159.40580        134.71886
169.72122        164.03462        181.70781
174.14063        161.41723        203.71697
170.09969        167.26913        90.19469
166.17388        170.39751        134.68905
170.06036        175.02126        84.87195
170.10870        182.05539        94.28330
174.46858        178.71452        180.50973
170.88413        182.40403        189.15283
170.26128        182.14435        84.54379
170.42859        187.64759        101.60379
169.99190        184.59454        158.79927
171.96205        189.60264        146.34783
170.57197        189.44587        178.38435
173.38875        198.44755        127.38602
178.10826        111.10579        78.25176
177.69014        117.92374        75.02595
177.68531        116.87595        84.82483
174.01853        119.10728        89.81316
174.35762        123.93832        141.74137
173.94018        125.67886        89.85774
174.20129        129.11617        134.33217
178.82199        128.56122        144.97985
175.02516        129.56624        153.51011
174.70778        132.67996        185.49433
174.08900        130.72791        194.79274
175.16398        134.65978        153.66194
175.41914        137.29130        165.09634
174.53202        139.84111        155.02332
174.93414        139.61377        174.02127
177.39403        141.16223        181.96978
178.70057        151.09481        192.11642
175.40188        144.43502        129.45531
175.80681        150.03466        126.33045
175.47476        150.16568        205.40438
176.67383        154.59571        84.65759
175.46920        153.75759        90.96667
174.95283        155.29181        97.83595
175.26577        162.24713        102.73617
175.45917        165.28608        82.60461
172.14562        163.75903        175.41989
178.90426        168.79990        187.71275
177.32855        175.92257        109.46952
176.38787        180.21311        114.89642
180.75031        181.18727        132.50581
175.10568        175.72400        164.82349
175.41009        178.38277        84.74429
176.86095        187.34864        121.79067
175.49641        192.14570        136.72472
184.24564        107.27913        71.93087
180.24982        110.25930        66.18707
182.00479        121.01276        123.07709
180.70482        124.78175        82.63954
180.66647        122.22244        110.05891
178.11897        122.23462        170.32640
180.37764        128.34434        95.14360
179.32838        131.05773        139.48351
187.83611        132.26663        148.04993
179.64903        134.85939        90.88447
180.65594        137.00988        139.64415
181.66283        134.97289        149.59807
183.94829        134.54805        155.66997
186.11712        140.86709        148.37635
180.47108        139.68059        162.12264
180.85398        144.52697        139.95361
183.61945        146.55547        161.93254
182.95388        142.29849        208.66903
178.55490        149.10990        98.47898
180.68100        147.80647        145.05972
182.45453        149.85222        151.32665
178.21901        150.31844        200.18248
180.47399        155.00157        81.01745
186.59131        158.59406        149.42590
179.11492        165.43028        95.22242
180.22900        162.95115        107.86964
182.04296        164.84059        129.99957
180.06591        166.49610        197.01122
179.46810        172.33156        89.91919
189.19664        176.20628        138.27097
180.65020        184.64096        102.71865
176.98862        189.44713        110.06853
182.57605        191.75189        133.08097
185.05096        107.82837        80.29918
184.79204        110.25237        87.48233
186.94531        114.95765        84.49930
184.95937        115.13940        94.86649
184.58636        117.86473        70.56339
184.22773        120.27570        95.30734
184.39754        120.17860        115.30380
186.64384        125.90533        90.20161
185.05186        125.53458        95.26114
183.15076        125.53076        132.17355
184.31936        128.41293        84.62045
184.28985        134.42481        129.32246
184.58811        139.80928        136.15524
184.91669        142.87863        169.59835
187.82470        150.57922        136.03401
184.52350        149.62318        91.79206
188.54783        161.25413        129.99489
187.95311        169.42174        114.20295
184.60888        170.35708        139.86894
181.32237        170.04594        175.71511
184.28603        175.20367        125.84206
183.38919        175.94341        134.83981
184.89394        178.09731        147.04103
184.17969        190.88350        110.27080
189.53188        110.18333        85.12799
188.19668        114.81456        79.59036
189.63525        123.13491        85.81854
193.30681        131.98952        162.99047
189.56981        135.93637        134.69294
189.55139        140.54964        167.75416
193.83614        155.27263        131.70769
196.22848        158.32116        111.15267
188.33247        158.70853        189.57113
190.40763        172.13613        109.94623
189.57390        172.35989        128.88049
203.53286        164.59017        125.90945
194.43725        135.94869        150.15105
193.65249        138.33741        139.61906
194.56514        142.73962        160.50698
196.25799        145.34616        144.83008
196.01797        155.39433        104.87643
193.67129        155.98896        145.07812
194.48451        152.51237        160.36758
196.72995        160.15280        98.89955
198.06831        160.20215        135.14685
208.30667        163.26834        99.69022
196.07230        165.08553        120.16329
194.81774        166.52327        130.68061
196.30538        165.16473        137.79293
196.00188        169.15618        91.24237
203.27936        177.45447        111.01750
200.25198        143.17289        149.71529
200.07191        152.47553        157.43200
201.17475        155.14079        129.86377
200.33431        165.16754        108.63595
202.40329        179.56406        132.81423
204.96621        162.75479        112.88998
204.77521        170.50903        110.21963
205.34664        173.00898        129.24778
206.00355        181.07022        99.39158
205.72956        194.19363        94.44787
208.70573        153.66822        110.28199
209.97247        160.09576        111.73335
210.42144        170.05890        120.24048
209.99860        168.92707        129.20490
212.68770        175.38364        131.48470
209.88677        179.31869        122.23475
209.88994        180.07880        134.79170
208.80977        188.25534        109.92838
223.82446        160.59494        113.96098
215.23946        152.45551        125.35016
212.99167        159.74623        104.81184
215.06499        160.57157        118.95213
215.50852        165.39051        111.41776
219.01295        166.73356        126.02792
214.76828        169.90639        94.38230
218.84842        180.84252        112.73049
220.15794        168.91181        110.30418
220.21759        165.29811        115.11288
226.24944        159.40791        123.52670
222.19729        175.45176        112.13816
