90.52331        108.87814        233.29459
94.74582        107.89633        250.12711
96.89362        114.41165        223.02345
98.63565        113.82929        234.37392
99.77354        106.95840        229.99992
100.17314        118.87949        211.84595
104.76809        161.19282        134.76454
100.05405        200.17723        113.08241
102.32756        96.97524        242.78895
106.20925        110.77039        236.75968
104.99906        109.12516        249.93178
107.56489        124.13570        209.38269
104.87413        125.33668        211.94240
113.03766        126.26821        220.40846
106.38833        186.86572        135.83094
105.13489        187.44366        109.99578
104.82174        199.96619        109.94138
105.04568        205.03189        110.42701
109.26010        134.63557        220.35172
109.74873        134.69550        210.27536
109.91439        152.59950        125.98746
109.05509        152.62435        115.31323
112.14278        164.19108        127.98894
112.40039        162.65932        134.21464
111.79330        190.79336        98.70213
112.98992        191.99971        113.76289
110.08191        197.85577        105.89395
112.68990        196.96032        128.93120
109.84004        195.19291        133.30348
121.82682        210.90142        108.68716
115.11058        207.21459        127.05100
110.18703        217.48967        117.08293
119.16541        102.92425        245.91787
116.33422        112.06227        247.47198
119.49922        127.04281        229.32750
115.72654        132.55557        160.03994
115.54815        139.72231        142.89697
113.77615        139.48749        169.29530
118.54107        149.90226        145.07450
115.52739        150.28447        175.36387
116.84442        159.24519        119.45796
115.26076        155.13000        132.56068
116.46935        165.02756        105.48570
116.51937        172.53302        127.44768
115.04433        170.57611        134.82713
112.92093        170.17732        173.36290
119.02237        166.74160        181.53027
118.89657        184.08999        124.22294
114.25057        199.82128        109.79905
121.73675        203.83670        97.01763
117.33740        216.98676        126.38111
128.60023        99.61258        106.04486
123.77905        95.76194        120.11808
119.12670        94.42321        234.48873
120.68109        99.59588        115.27045
119.96184        99.99820        234.76044
120.03622        105.26692        115.06496
131.78961        108.98966        91.92478
122.70858        109.91250        94.99070
120.34289        109.87682        244.70525
122.15248        119.51925        219.01872
129.86661        121.14834        97.02553
120.71121        120.79189        145.15443
119.69744        134.76229        136.50772
120.48519        128.78157        157.66963
125.50492        132.23673        166.86176
120.74161        137.80025        153.09218
121.40663        139.70338        210.92249
120.22304        144.94521        129.08517
121.17409        152.23153        126.60163
126.33602        158.27956        95.43215
120.16536        155.03622        136.56885
120.80892        155.17827        175.50227
120.20495        153.77372        185.64704
123.65689        164.69284        110.60421
120.12800        160.26251        133.31581
124.88630        167.03254        131.41806
118.39092        170.75058        157.78283
124.77170        175.40483        138.95370
125.48354        184.04670        137.58961
119.38422        187.90092        97.10927
123.82519        189.05268        102.93529
132.10638        189.95114        125.02071
119.48011        198.43006        117.04224
119.94577        200.02710        129.29024
120.48489        210.61659        95.07186
120.38733        208.97355        239.91061
127.36141        99.90471        99.95551
125.58672        107.08089        125.50701
125.22003        108.86442        99.76619
126.28378        111.52063        109.30641
125.62087        111.72672        246.37972
125.18730        120.58831        232.16248
127.43275        127.10497        158.15903
127.58696        130.06419        203.97245
125.80532        124.24611        239.80580
126.87242        128.42803        139.47929
131.06889        128.57558        149.95688
127.39330        128.91944        210.83487
125.71241        134.92558        93.44432
125.18874        134.93794        220.73329
125.46411        142.54752        136.78895
128.91849        143.21159        184.44291
130.10852        142.06067        195.60751
125.33390        145.20064        203.73719
130.74229        155.34816        108.30590
125.62798        155.20744        143.40022
125.29792        161.00758        168.13190
124.69076        161.71457        183.84215
124.14190        164.85996        210.40582
123.17617        170.28154        94.50773
128.60053        170.74253        102.27254
128.03436        170.24051        175.48427
125.48101        175.08957        125.94515
127.34325        181.72588        113.39395
125.36070        182.62286        128.36484
124.63666        192.48457        95.11896
127.46822        194.71330        110.12477
126.58192        201.27181        125.01319
125.36188        210.32653        119.05379
126.80750        209.85304        129.72765
126.69989        213.06112        242.47393
124.10875        213.23507        250.12361
127.41543        215.72186        120.90434
129.56115        89.82955        113.85151
136.40957        98.73960        124.06703
129.66962        98.64798        115.07339
129.61454        105.33220        100.18642
136.90889        120.05752        123.98830
133.70119        113.53912        217.73427
129.56072        114.98777        235.69602
133.79344        122.67596        109.14864
129.59314        120.16045        243.48526
129.62705        117.84143        250.06258
129.54966        124.17701        215.20282
132.11577        126.52082        221.41818
132.12306        125.28106        244.16047
135.47186        129.26487        137.28361
129.11814        130.84758        225.09058
129.24997        134.62612        159.97994
130.31591        137.06278        230.26619
129.18000        139.38225        144.66167
129.04438        142.10016        160.27175
129.13141        139.51247        175.43353
133.82674        139.84878        208.93384
130.62941        146.19631        154.98918
128.19045        145.06580        165.04839
129.03832        148.43075        173.48965
133.83363        144.78285        220.29651
129.11535        151.27192        139.86064
130.94030        150.08208        181.42894
135.38639        158.59778        194.18964
132.26322        153.73230        208.86741
136.40574        157.51768        167.79995
128.26045        159.07861        80.71538
128.11422        164.99497        160.35521
129.45647        170.39158        170.15230
129.26071        170.03780        182.09350
129.50705        170.28509        192.21060
133.43593        167.96338        201.27383
129.78762        173.10299        86.87172
129.52901        184.40802        224.62957
129.88475        180.44371        144.60596
134.28917        179.34762        232.41577
134.38181        192.27003        165.21268
131.98605        193.58190        250.64817
129.36693        199.59064        114.02437
128.27594        204.95364        133.28519
129.64240        214.74753        258.12708
134.57947        100.17777        88.92618
137.69068        103.89626        114.73907
139.09955        105.07363        124.37650
134.20155        115.38304        108.91170
134.75473        115.65781        224.96283
138.44733        120.67762        226.95677
135.06977        121.58779        153.61111
134.73065        125.47216        215.17213
134.82271        133.17924        190.02469
136.11879        129.31406        209.25319
137.34271        128.23707        233.11604
134.71639        129.58101        239.69417
134.75186        134.35129        159.68030
134.88449        133.17949        165.17494
135.60567        134.45050        213.89306
134.57140        134.76517        224.03880
134.46379        134.38972        233.23605
137.01738        142.82779        85.10527
134.31516        140.81987        90.89417
133.27612        139.45573        139.90461
135.87557        144.78281        79.97208
133.14014        144.40195        99.86175
134.79129        144.47196        125.67973
136.73220        146.09037        135.86452
134.46028        148.37088        146.46798
138.67815        144.61739        171.59570
134.32856        144.52025        190.07707
134.58381        153.97183        123.00339
137.66691        151.54799        155.43007
138.20235        150.11373        193.40616
134.61985        154.64157        115.45981
135.86552        158.47119        175.36905
138.84650        154.79669        213.74179
136.88556        158.92440        139.71521
137.23443        159.75506        144.85540
136.76519        161.15772        153.43912
136.06356        159.86737        180.37742
136.27364        168.49089        164.43635
134.73491        171.46041        94.71268
134.50803        173.21637        84.56973
134.78289        174.09774        90.12082
137.28301        179.48287        145.36595
135.06496        180.70378        190.99408
137.14888        180.38973        215.25834
140.72742        185.82284        154.23974
134.85568        185.70171        245.19876
137.33009        190.65080        232.59889
133.13541        189.24010        239.93871
135.09419        194.23174        98.61479
134.84610        199.80148        103.74573
137.15439        200.24838        251.13297
136.37542        207.61354        102.57023
133.31919        223.99411        261.92071
139.76152        91.12068        104.96012
139.65375        110.12759        107.75011
138.94377        117.08004        104.96421
142.50460        117.99653        134.80242
139.65563        120.59110        212.86050
143.15579        118.55418        221.23888
138.64134        125.33934        115.35935
145.19591        126.92971        134.61135
139.49981        126.65800        189.01529
139.75463        125.57055        215.12225
141.67044        129.36527        151.37701
140.66483        134.40177        194.81596
139.87546        134.35703        89.89608
140.13849        135.39508        99.59201
137.46612        135.00753        150.04074
140.01613        134.52052        202.36482
139.46577        133.60931        220.44420
143.28814        141.79401        126.67143
144.73279        142.46973        145.74568
140.04322        143.76989        165.28323
139.68305        141.26745        189.91631
140.86315        142.96923        203.28334
142.77435        143.71037        155.05622
141.47265        144.48428        160.05796
141.76416        144.92524        216.77631
140.84349        150.09631        115.34952
142.50286        152.70306        178.57203
138.98906        159.57708        107.48532
140.07082        160.20511        129.78954
137.61468        159.71752        134.69791
140.48191        163.71122        182.75033
139.53403        166.15216        201.92997
144.33338        174.08319        87.40078
139.90239        170.38713        186.00709
139.67426        175.05824        219.56058
139.67308        176.98046        95.59154
140.52730        177.22638        191.00595
141.34249        175.47287        233.50858
142.06791        178.06290        243.98122
140.18230        184.47762        226.16322
142.52204        191.48054        139.77519
144.93703        194.43121        162.57737
138.40206        189.85286        225.12164
140.20000        194.99466        225.13376
139.26351        199.64807        229.04223
142.86023        202.43394        151.17932
139.35224        213.70929        229.27014
141.20955        212.88679        244.69544
142.51551        221.16483        237.44018
138.60087        218.89544        250.03967
144.96376        94.57492        104.55183
144.85239        100.02559        100.18577
147.63763        100.94364        113.04979
150.16463        105.43043        94.01203
146.71205        111.63427        102.16509
144.78714        112.10112        121.45360
149.78765        114.22415        121.87989
144.82402        117.99644        89.92434
148.82605        122.93521        109.59687
146.05124        119.69995        204.68343
145.22456        125.93490        144.47869
145.89235        132.03126        141.40185
149.67272        130.35162        185.30198
143.40216        129.47928        215.04871
144.84195        140.00058        80.01532
147.05432        139.72566        180.30126
144.84374        139.31119        195.30665
144.90937        143.59101        89.35089
144.76613        144.73039        191.20481
147.76185        144.41000        209.88252
144.08062        152.37867        120.56267
144.88131        152.95416        127.53703
145.53702        152.66115        137.69268
146.79575        152.93517        152.54462
146.23206        149.46848        225.12944
145.28450        150.05284        249.89957
145.22888        153.01190        144.75713
143.50162        159.88133        125.70178
147.17628        163.64056        181.07377
148.98056        162.06615        210.16499
145.37498        171.85125        134.87626
147.43613        171.42709        144.81205
144.76376        170.29155        197.03529
144.89681        171.47198        208.68965
148.52997        179.46752        96.30428
153.13487        177.92430        199.41386
146.14586        175.37699        225.12084
144.78145        181.03315        210.04137
143.37588        184.72579        101.24338
145.26246        184.72890        170.55516
144.71158        185.07787        205.39619
144.71463        185.97668        213.92206
150.70697        180.04960        211.04267
146.52264        193.12573        235.51612
154.76358        194.20732        155.53895
147.28725        194.77632        170.42337
144.66874        197.94347        220.44789
143.74920        200.93989        105.43577
148.55804        206.07491        228.48811
151.58590        210.99702        217.21286
145.09347        214.73117        239.28026
144.75333        220.68791        258.78102
150.04636        105.42640        129.34395
152.33263        101.27535        132.57776
155.08936        117.77960        135.05918
153.09728        124.65006        170.19638
150.54034        129.05914        198.57112
152.04763        132.66262        163.02377
149.46367        134.69705        94.67378
153.12309        134.81403        175.49045
149.79622        139.75777        89.30242
148.52155        141.76436        134.87581
149.88387        139.36409        194.66847
150.04146        144.52828        84.66584
155.24368        143.02626        90.09629
149.84062        144.98233        179.06123
149.50943        144.67443        244.50183
149.94937        157.77413        247.40947
149.59058        165.02744        194.69794
150.83385        168.78616        203.17644
152.44227        165.15564        218.01623
149.89721        171.76828        156.01418
151.34507        172.44319        170.18953
149.79404        170.43379        190.19826
155.90352        177.88786        137.06634
150.40592        173.12487        165.27545
152.24857        173.28089        175.17598
150.07903        176.99440        234.39989
149.90027        179.02732        89.73383
150.29541        180.04015        128.11022
150.32356        184.55370        145.51575
149.90795        184.69752        161.28770
156.67342        183.24757        186.89693
154.64413        185.33612        221.24343
150.47163        193.33955        100.13957
149.83884        189.79415        104.98639
155.41972        189.18765        139.95963
152.47866        189.76258        150.63540
149.82004        189.29303        165.23979
149.79865        189.58484        170.44667
149.49570        189.55718        230.73324
152.32606        195.95066        221.45884
156.08506        197.75853        143.55564
149.50472        200.32342        224.96794
149.68328        217.13370        228.53526
155.02190        100.43689        139.24260
155.11472        123.18901        124.24229
154.79386        123.96517        138.31970
153.84963        125.21576        175.39172
155.02028        134.43322        84.50121
155.00366        134.64159        91.70880
158.54567        137.26867        153.58998
154.78279        135.96369        180.58152
158.20482        136.80228        193.20800
169.34889        141.03281        201.17752
158.67113        135.31721        217.26858
156.48136        139.89642        104.12933
155.23313        137.63014        170.47280
156.39047        143.60085        80.73159
155.16572        144.40525        184.94350
153.61826        144.54294        250.20672
159.66305        162.67437        211.24793
154.53081        158.80877        225.62899
155.27362        157.97573        250.01848
155.83983        166.59689        139.83481
156.13651        165.30458        144.78976
155.28966        164.81973        150.04614
155.98218        163.91234        155.01748
155.27200        163.22602        159.97802
155.40932        163.02703        167.73805
158.41211        165.10519        179.20670
154.96843        165.15770        205.47268
155.58853        171.14613        123.41529
156.49693        167.87939        134.57921
157.79335        168.08616        194.16976
154.63542        170.09781        220.57380
157.57320        177.54915        144.98048
158.04434        177.24768        149.99743
154.09286        176.26875        182.60780
155.01846        175.64543        194.55114
155.17166        181.39631        129.65348
156.57243        182.71348        164.84923
160.57991        179.27392        177.38822
154.68439        185.76580        102.88039
151.81997        187.42648        88.53456
154.30113        189.79002        218.33313
155.47419        200.24231        103.71261
158.58687        199.87072        226.19249
160.68793        115.29730        127.39825
162.80536        123.83041        127.70672
158.70990        118.95703        144.38311
159.90169        119.26036        149.63265
161.31043        120.22480        180.65892
160.16631        125.94170        160.45143
162.40739        125.97080        187.27026
159.66718        129.97824        84.82001
158.78503        129.81145        100.15540
159.92822        132.16711        105.31478
160.13298        131.06365        114.34258
160.45956        130.69127        134.31357
162.04106        135.46556        170.27175
160.73752        136.38848        176.57486
160.22506        140.83660        84.47028
160.29513        142.67028        129.19309
161.38452        139.74280        143.12243
162.30356        140.58749        164.04789
160.75985        145.75856        177.38418
158.25904        147.14842        225.19739
161.80518        150.18220        144.78794
160.79850        150.32025        154.02040
160.24586        149.76785        167.73066
159.82751        149.90276        245.84358
160.44821        154.84664        184.50350
159.90256        170.30743        160.05391
163.09072        169.85548        165.15443
165.13303        171.49218        211.85617
158.77407        175.04364        155.07054
160.51654        173.17175        189.53669
160.11192        175.34970        194.97664
160.25298        173.08484        219.85739
162.52180        178.11611        122.76033
158.66829        180.47063        157.45469
160.92616        183.11834        170.34447
159.45943        186.62343        209.92733
159.71428        193.41076        134.36876
160.10570        199.69544        215.64566
156.72428        205.29191        229.64709
172.79825        118.92172        131.32479
163.06784        125.42648        92.67050
165.26485        126.94686        111.32142
163.01677        125.81971        165.34667
164.99727        126.95293        170.30442
166.39771        125.62510        176.70192
162.11623        128.51226        155.25588
165.41231        135.25908        82.96098
165.42448        134.70132        216.45999
169.14992        141.69896        120.00481
165.38008        139.67745        189.47680
164.44876        143.13906        106.96113
163.91418        143.51805        194.63417
164.98651        144.77786        204.87413
165.94374        144.75683        218.43412
165.49861        150.44072        125.14044
163.78730        150.17520        134.55564
163.01018        150.86958        139.76362
172.05232        146.16276        206.30472
164.97987        150.44609        210.27337
165.12563        148.50919        215.26931
165.12459        157.43024        179.79454
164.11636        154.65802        249.63030
170.35953        161.10913        181.45995
165.13058        163.87678        210.17098
175.33951        167.44228        92.88639
164.34739        163.90647        98.44779
164.87146        168.57613        128.20666
166.23049        165.41369        169.57813
167.02189        163.95450        195.37142
165.03111        165.49131        220.04726
165.45770        170.87051        137.28290
166.87566        169.39545        151.43518
165.47298        171.62938        170.30638
168.84339        177.52439        90.03359
165.33360        174.04531        105.02781
163.87997        175.29921        110.00082
162.78183        175.50019        184.48719
167.38649        173.13509        195.08269
165.04291        180.76095        110.05731
167.05976        182.35431        144.51789
165.60775        184.43647        155.98738
165.13876        183.24163        187.58007
170.43541        189.77857        127.34044
164.98950        188.35126        139.52251
167.59668        191.49725        146.89437
163.74765        189.57798        222.34475
163.45267        195.67090        218.52283
172.36359        126.95610        105.08301
173.11392        125.64159        120.09710
171.48241        125.50035        184.69440
168.82174        129.17445        166.61858
172.04873        130.08809        194.88035
170.04295        134.47074        83.24952
170.49140        136.22702        91.65761
170.71095        134.37328        110.48484
172.60091        134.77268        141.42938
172.30314        136.17326        175.57809
168.01203        134.63750        193.55427
169.11811        138.47599        220.32783
170.37028        139.74744        107.76768
170.59826        139.97151        190.20732
172.95846        145.98820        135.87919
171.40320        142.18981        149.88213
167.99500        143.45127        154.72184
170.82150        148.21764        167.30556
170.46896        149.61791        115.38723
170.60299        153.49121        149.91650
170.68008        151.27298        155.13884
170.39412        150.07016        160.07190
170.46470        148.81222        189.89268
171.44860        155.00781        144.78709
169.97612        155.00923        196.34806
173.31460        157.61844        130.80153
176.30882        163.24615        201.88621
171.82791        165.08949        84.63102
170.61808        166.74992        160.09624
170.23254        170.17815        82.86305
170.34384        169.92683        105.37189
170.04007        175.37454        84.34769
170.14102        175.61427        165.27185
169.20548        182.48839        94.65695
170.48115        180.22040        170.67907
170.50170        182.09106        189.07935
172.39825        184.05227        84.93485
171.12166        188.70202        101.89162
169.95711        184.60100        113.77271
171.93555        180.40815        176.75622
170.03387        189.82955        179.26787
171.86044        194.81559        125.43746
173.77281        199.33240        130.81061
175.86060        110.63239        133.39568
174.95642        119.37224        139.87165
178.10083        126.95796        143.32598
175.57409        130.25995        126.77644
173.14463        129.34004        139.68797
174.75913        132.70166        185.41423
174.40670        139.46759        155.05827
172.18183        142.85904        144.84221
179.36339        140.02001        162.62824
177.44999        140.99513        181.88127
175.14999        144.48990        129.49303
176.77698        149.28482        126.09318
175.88059        155.00475        95.08627
172.25487        157.01266        139.80564
183.34892        154.46082        215.49060
173.10172        158.97787        101.05321
175.40723        164.17360        104.09240
174.67411        164.47285        165.99760
179.76653        168.63156        185.74137
176.02706        175.45247        113.26636
179.77612        181.06761        133.10927
174.70887        175.34476        158.89600
175.66156        176.36971        169.00203
175.28940        176.82825        183.24482
176.08937        186.02419        112.61862
175.33407        185.66647        145.32591
181.05627        192.14955        134.00607
173.94117        201.13952        120.51994
182.57169        120.30181        122.92213
180.58987        124.16543        111.76327
180.51191        125.94502        214.91176
182.62141        125.19578        222.43980
182.62769        129.69292        128.26930
179.15488        129.68950        149.56673
181.30565        129.97226        208.11013
181.26282        138.00792        139.60454
181.83114        134.71621        149.74456
180.60194        134.98999        221.45088
180.90222        139.92278        144.66208
190.66337        143.66967        164.38873
183.91810        141.49365        207.78361
181.62692        139.76984        228.33879
180.89012        144.78797        140.12425
183.13839        144.73320        160.25872
179.82814        149.01891        233.44104
180.10205        145.16298        240.12964
180.42382        148.53741        144.97821
182.79754        150.02913        152.08929
177.38202        150.26215        199.79796
181.83066        149.67253        212.76066
179.31907        154.83345        84.26766
179.17818        159.82562        108.41564
182.29066        161.67091        144.37896
179.15792        165.47789        84.33788
180.51530        165.03148        95.33817
189.51864        161.04179        131.38774
180.30768        166.83236        169.68053
179.93229        176.65178        88.57086
180.74205        178.09109        184.58756
180.93434        182.41470        95.98795
180.24783        188.49220        109.96269
188.27773        131.61050        144.05204
184.59898        132.91902        215.33624
187.09729        134.69377        154.67238
184.69232        139.62850        135.00455
187.98595        141.55570        149.96233
186.01870        140.92266        244.83373
185.09830        144.70500        134.80095
187.75928        144.85976        214.48391
184.77051        144.98535        224.91199
184.14977        146.49320        246.42755
183.30977        149.96355        162.80852
184.65168        149.58770        220.25197
184.53156        156.44921        100.14058
188.65444        152.62159        139.57901
189.69787        156.11956        155.24691
187.56233        154.13310        231.05167
184.69905        160.41057        150.09668
188.97489        170.40388        112.76535
184.54691        170.23027        140.19765
184.34108        175.49447        126.82832
189.18952        176.24437        139.62478
184.21959        198.49631        138.59369
189.73766        121.57812        213.00118
190.53683        129.91742        94.79835
189.46157        128.53250        168.83898
197.83157        130.60174        222.62357
189.47754        135.98960        134.90340
189.45685        134.67142        230.68028
189.29596        145.87669        98.90484
189.62467        146.05278        202.18394
189.48708        145.87563        220.31138
195.64433        158.32837        111.98247
192.07079        159.94395        120.32125
189.58039        163.34576        139.51926
188.39753        160.01059        224.14663
189.61721        164.81256        109.70574
191.94701        175.07592        115.36098
189.57462        174.03955        129.47695
188.61084        183.24979        175.38729
194.85962        123.21833        213.95034
193.34467        124.05273        224.25212
194.08510        132.76488        233.04477
196.60599        138.03743        150.09361
193.91023        134.82264        160.61308
194.72973        138.33071        139.52466
194.82298        144.02350        99.58720
194.61804        144.64423        221.80656
195.69366        148.96158        239.31136
195.74264        155.19188        91.12842
196.39730        154.68093        164.80432
196.17272        155.13042        220.38231
194.99054        159.87126        96.27501
196.12700        165.45999        100.02270
196.19691        165.00177        120.29424
194.94238        165.32544        139.45363
196.13247        169.17947        92.01493
209.82087        172.55748        105.91330
201.29640        168.49941        126.41658
205.02689        124.91685        213.52339
199.82964        140.06920        225.47896
201.23435        144.43419        149.56537
199.82599        146.39415        249.78089
199.63608        150.89149        156.26325
203.35204        154.21493        101.16813
200.33478        164.96796        109.68466
203.58975        170.24226        110.71365
206.04078        181.03636        100.11913
199.78031        180.29367        121.82514
200.35079        180.35897        140.71169
203.88165        134.31103        227.32515
204.80055        139.63480        249.55960
204.73053        150.43026        245.04848
204.87488        158.00230        133.17549
204.88102        160.30587        113.87204
205.06188        165.35029        112.76519
204.98107        170.24355        127.10075
207.06831        180.60124        120.14016
205.15483        182.49835        138.44072
208.23049        130.51679        220.11261
210.82661        131.08094        240.16727
210.02725        144.64508        250.24396
209.94924        155.99606        113.11430
213.14024        157.18984        130.45276
210.09463        170.10817        119.98157
209.88544        176.44317        113.66345
221.34098        165.57212        119.50980
209.76811        180.33525        125.16203
210.31859        179.03294        134.82155
215.45437        121.77729        234.19678
216.88106        158.78229        99.20159
214.87120        160.13339        119.06659
216.63565        170.23897        95.06349
215.18991        180.57508        109.86034
220.14058        128.66092        236.12032
218.27896        129.51423        264.71271
218.08595        134.75612        263.70503
219.92057        152.99402        120.07673
219.03860        150.05179        239.61875
220.28142        164.99898        105.31583
225.71371        129.44791        258.60124
225.35290        159.30493        123.00877
230.77443        143.92488        249.44120
