104.22175        183.87271        208.18074
105.61574        188.63645        211.59916
104.07224        205.87918        197.60443
103.53888        205.69675        207.24855
108.71051        208.92232        214.54033
104.38605        224.18452        194.28072
101.52318        233.65750        199.55488
109.18249        183.46994        205.06943
110.43802        192.54539        208.41024
111.35319        202.27200        204.62697
109.30816        205.98310        193.67027
117.03752        215.31740        197.47191
107.92189        224.56509        199.51906
109.80520        224.92391        204.52799
109.20687        240.17407        205.50018
121.41657        181.71344        208.91332
118.92449        181.25235        218.51647
118.59068        188.74478        201.80648
113.91988        196.35953        197.68244
116.19850        205.90930        188.72904
114.46300        225.37279        190.89135
117.06951        218.20381        208.34519
113.15426        224.38690        199.01825
113.39948        224.48952        208.71100
118.32859        230.27187        209.61039
114.15269        228.48859        177.67650
120.04186        179.01272        199.29347
121.65413        195.87682        209.26955
120.12595        199.34544        194.17197
118.75406        207.22562        204.16628
118.42360        204.34874        217.16733
118.83919        224.30950        181.58838
122.01846        241.31664        205.37039
123.48258        172.77097        213.16033
124.69159        183.12774        193.28706
124.58448        187.02644        204.22633
127.52681        206.32421        183.63928
123.78001        204.55958        196.04624
123.82999        208.95457        202.96894
124.29402        214.03027        206.61434
124.40333        218.82098        204.47732
130.40494        222.65210        195.22625
124.10265        223.08306        199.29591
130.59971        174.32852        209.23685
126.18744        178.24245        224.34942
129.16258        183.61531        203.99007
129.70378        185.12906        218.65413
131.61711        199.18657        207.36876
133.72596        206.16639        191.19889
130.52361        212.08778        201.27134
128.73399        216.43111        183.56146
127.73655        213.50116        213.50453
132.33591        235.93488        200.27456
133.66582        163.64237        168.75609
131.45536        173.75723        174.75247
133.80544        172.59471        188.87682
133.36961        186.12121        222.51173
134.64515        191.47232        199.63405
133.85917        195.95305        213.63870
135.98178        204.66790        174.23113
134.66151        208.26767        209.08649
133.42230        216.29168        179.38852
138.28339        167.20759        153.94278
140.14510        176.06241        188.39857
138.44983        172.00500        194.19739
141.45725        168.72892        201.72991
138.85376        174.09201        163.36052
138.64828        180.32030        215.82168
141.40072        180.76733        171.98572
138.04292        181.21813        193.19014
141.34089        176.58175        224.83525
138.69655        185.11625        183.09348
142.31283        180.47991        203.95499
140.87697        190.91450        206.10770
137.25323        198.32819        188.49529
138.45710        197.77055        222.86421
138.37100        203.55811        199.81434
138.19132        208.79924        193.94365
138.42788        214.81772        182.27969
139.19135        214.87381        190.57045
138.37714        218.83430        196.70696
146.26652        113.55375        175.99242
154.41941        109.86921        181.73390
143.75703        123.88486        168.99284
143.77296        160.55999        164.78272
147.94113        170.95251        219.40462
143.58315        174.30404        172.82800
146.37223        174.13057        183.87067
144.98063        181.27009        180.72379
148.67285        186.57572        188.85848
144.67261        188.76071        215.47980
146.61899        193.11503        221.78275
146.99622        198.27332        199.76281
145.75273        205.33684        207.37506
146.69086        208.59051        187.25873
143.77951        208.81987        199.12930
142.20049        213.74962        199.26128
147.29559        228.60204        193.72362
148.84294        119.60466        162.08199
147.48571        127.93952        172.88613
147.59680        149.34472        172.00513
148.13431        156.13472        183.05429
150.81190        168.18596        163.66235
148.93342        169.60460        188.56833
149.32544        188.86427        174.47642
149.16277        188.56082        199.66022
148.75072        192.18079        179.33447
148.95364        191.15815        208.81157
155.78959        192.20364        206.24282
149.05058        209.01346        193.78073
156.49638        107.99129        162.84094
154.28988        120.04478        174.09219
153.12789        119.24068        180.62577
154.34771        126.25944        160.95037
157.71436        126.50786        205.09131
154.17332        138.94135        183.40090
154.32364        143.79080        181.71143
154.30438        146.23880        192.76363
154.47590        151.69099        179.34171
150.00081        149.53122        189.18205
152.55059        164.08362        183.25945
157.81770        161.58697        189.83079
155.86929        173.70496        193.88037
157.24588        172.27128        216.81287
154.63151        172.43781        173.93561
154.02423        174.11867        183.53348
153.56199        173.18983        225.46744
153.61372        181.85935        167.52607
154.31323        183.81560        173.87447
153.01670        181.79031        214.05316
152.74889        182.94582        219.14142
156.67738        193.44176        220.78405
157.28339        194.44489        185.31416
155.02130        194.17609        193.98557
155.80630        204.33956        206.59159
156.42385        208.53715        181.92946
152.64553        213.54450        194.61566
155.59125        213.70849        200.08788
157.83567        224.83093        190.35877
165.55454        116.06740        160.21990
157.99878        118.91966        168.67938
158.61076        120.19978        199.54341
160.27293        122.50296        181.76015
157.94549        133.89500        192.31833
159.65639        133.11854        198.84872
158.03432        138.86107        189.28194
157.81846        142.27007        202.11687
157.93176        148.98479        174.05756
161.10044        158.26418        169.05801
158.24947        158.46002        174.37059
159.77299        158.43227        208.39864
157.91931        163.38574        179.23483
161.80726        163.44698        208.48782
155.39958        170.49189        179.19051
158.78288        170.49377        183.73610
158.24466        170.46172        199.23592
158.65627        168.87508        204.66614
155.63544        174.44830        169.42473
161.67478        179.43109        176.54568
158.55154        180.58862        202.95274
155.46333        180.11788        208.56029
160.25678        180.54450        225.81998
166.74099        182.65094        192.17939
157.76273        184.04358        193.95908
159.70214        189.89814        170.72986
158.51105        197.82033        176.43425
159.04954        205.12318        192.65858
160.30302        199.25967        199.35283
158.23395        199.80255        208.41655
156.89388        204.39579        213.40730
163.22261        103.91698        158.49193
163.52960        117.09265        181.99802
163.72728        118.90508        198.94382
166.98036        124.57944        187.85419
165.73920        129.53473        203.52390
164.28822        138.28058        179.48314
164.27234        138.51265        188.31972
163.56500        143.72122        174.46814
164.01595        146.67880        181.46565
165.61134        143.44956        198.85667
166.82787        158.83951        180.89531
166.39277        156.80662        190.40012
165.39553        160.96085        174.14120
163.48222        169.41659        213.98021
162.76267        173.46813        180.79595
163.19835        174.22949        194.17801
163.36110        172.88029        199.28761
163.44548        174.56740        204.43825
168.73953        172.41716        210.41067
163.45474        188.22129        160.83397
163.50233        183.56814        214.95829
167.19037        188.96868        207.08525
163.68190        195.39400        151.80765
163.60548        193.83339        163.11064
164.99109        194.73144        182.04713
163.98024        193.63297        197.54836
163.25816        194.28592        209.10693
168.69466        197.91874        146.97618
164.23140        198.68654        158.90015
168.77573        104.24611        166.95753
173.77501        116.78481        193.18237
168.83163        119.88321        175.45949
169.02315        118.58687        189.22726
172.20737        116.99979        202.08857
168.46831        124.13266        199.37660
168.30300        126.09024        169.46500
171.11165        131.80984        209.81153
168.81390        134.89483        188.68059
168.96071        139.50144        206.63515
170.80854        143.73101        193.93795
172.21023        148.93357        168.98207
169.09323        154.02734        165.60911
168.94601        160.08990        142.46671
170.77981        170.57838        189.64244
169.14735        166.31335        199.21312
169.41065        165.12790        205.08426
170.71709        170.23102        139.79907
170.66073        173.92740        221.43383
168.52837        179.43462        163.26767
169.14123        181.65128        204.87492
168.17691        184.82897        154.85642
169.92345        187.85922        174.34477
169.12827        188.14942        181.51950
170.40266        195.80091        163.69843
168.75798        197.59479        190.64767
168.87856        204.11920        147.46128
168.83948        208.31247        163.91006
168.91690        206.67492        182.87331
169.09285        221.50622        188.51938
174.33252        102.62855        173.23099
172.79950        115.96509        168.61761
175.10724        117.07935        180.90512
176.82077        128.89887        192.87076
173.90623        136.88815        177.05364
175.59840        137.37796        188.33499
173.71151        143.72215        171.47790
175.54669        150.29621        178.78286
174.07682        149.27221        191.22141
178.05362        164.13850        137.39128
173.86157        175.62346        133.32009
177.81803        180.40252        167.72273
174.03549        185.24434        148.96808
175.71303        183.71283        158.80067
174.62022        186.35477        188.50068
174.50971        182.39942        216.01700
173.66699        188.46725        161.53150
173.73875        188.41628        183.63281
179.03168        194.03705        149.12703
174.26349        201.22124        169.37392
175.52046        204.48086        138.82343
171.46471        204.44986        172.32881
174.13884        209.12907        172.36171
174.34011        221.40999        184.05125
179.48903        116.66740        188.98524
179.07726        118.91492        199.16876
181.73587        126.29092        203.36584
178.12217        136.81754        200.86221
184.28677        154.51886        143.72137
178.64088        157.43477        185.92275
186.02265        163.73395        130.72903
181.52109        164.30651        143.88638
181.71089        163.28934        151.70087
179.42491        168.70987        153.78287
182.14169        169.27358        164.07979
179.52800        176.78098        142.92921
179.37845        187.34481        144.16792
179.26852        196.28699        171.06350
181.51700        192.78167        156.74843
177.67564        205.96513        146.62962
181.23249        203.44022        159.67688
184.12888        215.96782        169.92375
182.67961        220.34433        183.45887
183.90347        113.78746        184.99075
187.74592        140.44302        199.07988
184.38896        144.76317        206.25244
187.18581        146.12245        138.27908
184.93479        159.83926        160.60793
183.50356        169.98549        138.29997
182.33507        175.14329        131.23334
183.75574        173.70487        151.22576
183.46245        177.83866        158.57689
186.54160        186.20871        165.60719
185.10603        199.03842        143.64595
187.88609        204.69385        182.54375
185.02018        213.70576        176.02513
193.51505        211.11920        166.23402
183.79470        216.30107        194.15566
189.05011        114.71662        181.83924
188.79203        111.81629        206.64090
188.86414        120.60898        192.39351
188.86864        128.70285        213.27719
189.15917        134.69597        188.19708
187.13772        131.72849        193.69772
191.44437        133.23885        208.15877
191.68513        137.54835        206.09171
191.73547        141.00583        213.40918
189.86417        145.47113        147.37389
188.69305        149.28516        133.28719
191.37436        148.78500        208.45644
190.61438        163.63723        146.61798
192.34369        162.01655        154.89582
188.86269        168.92776        138.75665
188.78195        174.31720        149.39979
188.72585        173.73674        164.01710
195.42960        178.13063        179.86664
190.08308        187.18292        154.27028
192.66334        193.29424        176.50415
191.78969        198.99542        151.03808
188.92423        204.61190        172.28677
188.69569        214.70951        191.66593
188.72980        219.16928        183.69400
191.31856        109.24955        210.18143
195.09999        114.34559        179.39599
193.45603        113.60547        193.98846
194.51558        123.97261        204.25156
193.83411        151.03315        129.00126
194.62337        147.44893        199.18417
197.05453        158.69873        122.42674
193.89538        154.90394        136.97372
194.21785        154.32844        208.41652
200.12107        169.61568        154.27415
194.23286        173.91519        131.52403
195.78378        177.66247        148.55956
193.65115        184.04785        158.28917
194.59379        194.27455        162.26680
193.67107        202.81777        174.38945
194.29060        208.08785        183.02262
195.56706        213.97077        191.04036
196.18166        218.93350        172.34741
195.04711        220.47422        183.09470
200.49430        109.90862        217.55399
198.62398        115.19403        190.63866
208.75958        120.72706        171.22106
199.41104        118.80177        194.20023
200.95101        118.79610        199.14335
201.95069        126.16816        177.76716
200.81399        123.97750        194.08862
199.61149        122.64468        218.65068
199.71374        128.36284        206.76901
196.45555        133.16006        198.73718
201.09561        143.19418        190.80999
196.80866        145.44077        205.41894
200.71533        155.43279        133.55551
200.52327        157.45674        143.79593
197.71402        156.98433        148.98603
201.30503        154.14792        168.08762
204.10810        157.00162        175.35489
199.05800        156.78602        204.88640
199.23167        163.83665        133.04680
199.48685        172.18391        167.67746
200.58457        168.80691        174.27913
202.98828        175.78288        192.95298
198.72331        172.35039        140.07730
199.22200        179.08737        168.93895
198.16731        189.61288        169.74322
198.94954        194.20016        158.27080
199.38373        199.74566        174.26434
199.10567        204.86311        172.68374
197.71876        215.37968        179.06961
202.89420        108.14185        174.75163
207.20026        107.85477        180.72094
206.45816        109.37528        192.67468
206.01883        113.30010        203.82044
206.76355        113.59187        213.77654
206.25010        117.96663        182.25448
208.97322        122.65241        163.94196
202.94902        123.82091        198.87671
204.44571        129.28206        193.81705
206.74430        131.04370        199.26650
206.54402        133.25253        188.56950
204.06671        143.54991        199.34737
204.85137        146.44046        205.73267
204.33054        147.62117        181.73680
201.60337        149.48389        213.50362
204.49065        156.19786        158.27382
202.82373        154.00073        202.97415
201.37689        154.35844        212.31365
204.62490        165.09522        142.26045
204.77342        165.11658        163.32219
205.48040        168.75797        129.00598
206.80370        175.40320        180.67985
203.77911        181.21376        168.81742
204.67952        180.82767        185.09300
202.42239        189.80678        182.00637
204.15967        193.78548        156.34220
203.13056        197.85215        168.79459
206.44152        195.06574        174.23573
208.26909        113.67781        188.63374
212.55448        126.55374        188.41463
209.63901        124.32956        209.74786
208.35140        133.01666        193.83626
208.95497        149.53715        136.88024
208.11887        155.58415        154.33076
212.93211        154.27121        169.59722
209.13329        161.35601        128.61784
209.21573        163.94960        149.39825
208.74373        167.11854        138.40254
210.84465        183.08418        170.18497
208.56447        190.91027        168.59083
206.86543        193.65301        164.00171
213.59058        108.92511        169.20187
216.65856        108.44422        174.07642
216.21455        109.65248        183.34881
216.98437        119.07298        204.82668
215.43133        123.47639        124.30988
217.94658        122.72599        132.72079
215.63080        128.81727        201.07038
219.30016        133.16103        133.05507
213.94926        142.97159        131.52973
217.90283        143.91610        139.61566
213.72109        151.83429        161.92455
216.83970        154.93356        130.57743
216.12995        155.46518        144.77151
214.73457        164.41925        138.36971
214.03295        163.63195        155.52595
214.42962        171.60717        166.84040
214.26019        169.15909        174.05890
215.32936        178.46129        182.02703
213.26605        188.56339        176.60756
218.76962        103.87421        168.77963
219.65280        109.70714        169.12634
219.31741        113.92214        194.18306
221.00114        120.76336        167.54590
222.21215        129.43720        176.59067
219.59484        131.31539        194.10276
221.62203        145.03862        130.92130
216.07683        149.34971        143.47026
220.87777        155.71986        154.86854
216.32339        154.63029        178.98643
219.90891        163.14452        162.93004
217.52222        173.86204        175.20806
219.08836        178.35637        167.42278
220.50125        179.17538        174.11411
223.74014        114.12163        169.54535
225.20728        120.08621        181.69483
224.59332        118.41527        174.33264
227.61963        123.17605        129.66695
222.44117        133.29866        124.26772
224.19851        133.22218        167.49214
223.30875        133.14883        186.99402
222.62194        138.43553        164.03229
227.99363        144.17640        170.00088
223.49505        144.15718        156.67660
224.74724        143.65511        181.44238
224.82161        155.45072        140.21009
225.59411        152.75952        160.90310
223.82111        158.34349        129.07332
223.37720        163.78656        171.30076
232.70473        123.44878        171.14112
229.88079        126.04651        193.08921
228.06209        129.26628        164.29013
228.54231        137.15452        181.93169
237.25202        142.63081        190.87695
228.54390        142.23589        192.53148
231.04915        156.29256        174.18660
229.50536        154.45227        183.84096
228.65010        164.24899        158.46776
231.68412        129.00508        183.40988
232.65870        129.77625        188.43876
237.62180        132.95215        174.20078
240.42725        147.24945        181.55429
237.37523        155.81785        160.27673
233.52193        152.53038        192.36279
233.33595        158.16371        164.09018
232.08579        158.29503        169.08822
238.74109        139.99241        199.17061
241.93983        151.27475        168.18057
244.00859        137.68441        167.67853
243.89282        138.97919        174.15198
243.89070        137.64562        180.58673
