211.88471        259.05174        322.15195
231.64144        250.42981        330.75098
223.37981        278.14993        322.65478
211.76182        285.81952        320.93757
217.46553        241.20066        335.74206
217.33549        291.08494        320.20674
225.87972        298.15730        321.99320
239.63904        270.53613        310.90040
227.93922        267.32497        327.19441
231.05816        233.60620        317.16934
233.10567        256.71569        306.51723
237.61319        255.16748        329.62377
235.63583        290.16886        329.65549
241.20978        230.56613        335.39030
264.95643        245.93131        335.11009
240.51329        235.98527        332.66619
251.03202        258.70027        332.98341
247.45684        170.29631        306.24544
253.24035        224.15697        298.25653
248.57834        231.97012        310.56423
246.48900        241.11031        332.34064
246.09279        262.01794        319.04487
251.75068        162.62947        311.71821
255.61554        162.22750        326.86137
254.31476        168.86947        311.68928
260.13064        169.15839        316.95936
251.32716        173.38355        303.01153
254.99643        179.44905        293.32331
260.87111        205.36625        320.24173
271.77648        213.67277        307.27512
251.43291        235.10279        291.36499
264.34422        234.06982        310.05379
259.71624        165.38212        300.10918
256.83267        162.64663        311.72462
256.61715        207.44932        301.98022
263.03501        233.68464        291.25657
265.06453        243.29425        313.68559
258.81721        251.36132        345.65889
256.73715        251.21706        322.83367
256.71296        261.98830        306.75982
262.00938        162.61910        306.52798
261.56587        168.80076        290.28743
261.93091        171.03982        311.64506
263.94284        172.31295        328.28250
262.42485        176.23485        288.88724
261.63774        175.32791        304.31990
260.69248        180.57471        306.43501
261.72589        189.96109        309.96021
266.03721        195.02231        324.64963
261.70348        206.87211        305.98533
263.80178        211.92945        318.46907
262.02375        217.58989        306.65879
262.04885        235.68938        345.80590
262.00410        235.58193        350.87563
261.80838        240.95295        296.31121
264.39026        249.56502        325.53122
258.78787        240.83603        355.24450
278.07602        168.26950        294.17108
267.19241        168.52740        304.50893
267.18381        162.63861        306.50776
267.27218        169.39999        322.22578
266.61336        170.00061        286.33415
267.35613        175.42698        322.35628
267.32608        175.52989        327.53974
267.31959        180.74762        327.60011
267.36458        180.78972        333.96661
269.79398        186.02637        327.63530
276.80496        186.06877        333.63346
267.20138        191.18165        317.35662
267.30049        196.50713        311.66840
271.34483        201.65581        311.71429
264.11826        217.80730        301.40558
266.97727        224.10523        311.95264
266.89783        226.55406        322.10784
269.38965        224.89630        333.78699
267.12179        228.02797        327.44710
270.56347        225.62871        341.24094
274.93878        230.65134        333.09849
267.25681        230.57107        340.68705
266.63832        235.67161        322.29457
267.12368        235.82258        327.68684
267.22295        235.90556        340.46903
267.10749        235.81900        345.82591
267.29381        240.39149        295.74062
267.22789        241.20463        322.32239
267.42989        241.01091        340.66560
267.29634        246.25842        322.26007
267.25604        246.22639        327.56009
267.40116        246.27670        332.59965
267.20107        251.49302        322.22206
272.53079        162.40179        293.78643
272.46476        162.61838        301.30563
272.47015        167.73732        310.59688
280.30748        168.67451        304.14014
272.52873        171.19114        316.97467
272.51756        172.92503        322.29032
272.55428        173.16135        331.90769
272.47470        175.48364        327.53135
272.36836        180.68269        327.62628
272.52899        180.86266        335.97169
272.27392        186.31201        322.31254
272.48554        193.77065        319.61193
272.12252        201.74902        317.77414
273.61051        206.94877        306.48630
271.85670        230.71797        296.52524
272.46992        230.65220        340.41824
272.52248        230.92789        345.44225
274.20183        237.78723        295.91581
276.47174        235.76809        334.10379
272.47654        235.91468        340.42693
272.19144        241.15846        301.34718
277.37399        244.50979        307.84344
272.47524        244.73048        320.74324
274.73217        240.92673        340.57723
272.31867        251.31092        322.30238
272.59712        260.90363        240.42950
279.45066        161.00854        290.51908
279.01793        162.59144        301.25632
279.02095        171.11335        311.77693
279.04167        171.24523        316.95821
279.03879        172.90923        322.25839
279.03506        172.93694        327.51361
279.08962        180.59359        327.64605
280.72554        192.55256        319.33362
281.00803        192.73388        306.67691
282.40234        206.22203        317.04252
278.35149        223.52817        333.30811
280.02099        224.76247        314.75586
303.12255        227.24135        258.60765
277.85040        225.78823        307.10694
276.72489        230.38288        301.70180
278.65094        230.38727        317.12504
278.65429        230.51057        322.34228
278.64931        230.55216        327.48434
279.62808        241.39803        317.01964
278.71805        235.86863        322.28760
278.63271        235.74212        327.45210
284.89615        259.85370        240.36314
283.22949        168.67717        285.83669
280.52055        180.68311        317.16859
280.53407        180.62758        322.23643
283.20464        186.01422        327.53083
281.08541        198.84204        296.24578
279.78831        224.11069        327.46770
280.91297        230.13517        306.66779
280.57058        238.43049        301.47098
283.26410        249.27211        278.94924
296.52543        255.39782        283.41929
300.95017        259.59369        262.16271
287.00104        168.59919        311.84108
285.44980        169.32789        316.92892
285.49917        170.48321        322.23695
285.49554        170.48758        327.52107
285.55053        176.20032        335.42420
285.53114        175.42873        317.09907
285.57622        175.48816        322.26138
285.56622        175.51518        327.54548
285.63940        180.76572        322.28826
285.64776        180.74875        327.54728
285.58884        185.82046        333.85843
303.01100        199.63002        335.71258
285.56003        201.68258        311.66904
285.44902        212.02326        314.25459
295.56113        224.55173        275.24546
290.64004        247.13550        269.13107
292.70446        267.47517        287.84713
290.37324        157.08484        289.92784
290.07371        163.36150        285.75214
290.77884        172.98534        319.69148
293.26609        172.98864        327.45755
290.70925        176.24665        335.43586
294.95904        175.34170        320.45247
290.66286        180.78492        327.54630
290.57122        185.92398        322.54197
290.74577        186.05418        327.56384
290.89216        185.98202        333.88221
292.97620        191.31629        332.67491
294.91153        230.39791        272.33665
294.95513        248.82930        244.23670
290.99563        256.79292        291.80009
296.06180        176.46588        335.50218
295.95877        187.48115        330.86035
299.98805        185.92972        337.14531
296.18477        212.38894        262.08287
298.45319        212.09856        267.10236
296.29965        217.53047        256.95822
296.01202        217.38802        262.06450
327.23079        244.12761        258.07604
295.63693        235.91032        279.05081
298.85132        242.06844        278.27021
296.12999        256.61554        291.91672
296.00650        261.84066        290.76899
297.63538        270.39893        272.58512
301.40739        272.99781        279.00241
306.87859        167.14927        303.35561
303.59068        167.07569        314.04031
301.34144        173.76071        320.49285
301.33162        172.43427        327.50924
304.78744        169.78468        336.64313
301.44943        175.61603        336.24563
301.38163        180.83067        334.17772
301.37253        180.74210        340.42281
301.26873        193.76277        330.12865
301.24171        196.52299        334.06300
311.19808        218.84954        246.29518
301.28575        212.38866        273.44561
301.09815        217.60695        274.64199
301.28751        230.41677        251.63775
301.12776        235.59393        261.74554
320.63465        229.86409        294.59958
301.42583        246.30632        257.66190
301.49199        251.30874        277.26483
301.40259        257.74282        293.18087
307.31971        274.45257        288.05593
306.54810        168.95723        317.01486
306.51890        171.04054        322.15930
307.96964        172.16484        327.56617
306.53658        175.51232        317.08714
306.59656        175.56517        334.19222
306.63164        175.51779        340.48825
308.08916        183.08053        317.22452
306.44636        183.21430        336.06426
306.98219        196.94686        322.37405
306.24525        211.84735        270.22288
308.87483        217.34518        273.53631
306.47743        223.46390        265.38712
306.48799        240.98961        271.87579
307.83171        248.91098        272.04817
313.27052        250.76470        297.37738
308.40234        261.90212        294.22062
306.64689        267.23613        290.72631
311.76614        166.81312        306.49699
311.80224        166.81079        311.81224
311.78379        166.98165        316.89357
311.35374        162.76631        342.76980
311.79450        169.01209        322.23490
311.81516        169.03441        327.53353
317.35434        172.75803        336.83292
314.58634        172.43319        296.08458
313.02534        177.26566        304.56154
311.77025        175.54157        316.98129
311.82199        175.39801        322.14931
311.77535        175.48298        334.19622
311.89124        180.82589        311.89615
314.54121        181.94997        320.66206
311.72671        180.62394        336.22276
311.72967        185.93872        334.00056
311.31722        191.49383        322.03836
312.07619        217.38038        277.75056
317.84423        220.32863        283.20173
313.06545        240.88186        270.32153
313.09166        246.52558        270.55701
311.05912        251.55229        267.35018
315.89010        261.99261        290.74781
315.86744        267.12459        293.24887
311.69641        274.58047        280.47589
317.05056        166.98351        316.91989
317.05381        168.97674        306.53456
317.05081        168.92417        311.79967
328.52276        170.79914        306.60340
317.14949        177.84558        301.36867
317.02296        175.53512        311.78831
319.42198        175.44689        316.92238
319.35219        175.53942        322.26771
321.77460        175.80211        328.03849
317.04455        180.66020        306.58707
316.92790        185.12383        314.39039
316.99468        180.85669        316.91933
317.03586        185.96950        333.98473
317.03891        191.23319        333.72912
317.06139        217.48250        251.67079
316.91241        217.47553        256.71110
320.50140        256.64533        299.53865
319.09958        264.57487        285.65131
319.59958        275.42284        284.82301
322.33806        168.98909        306.50550
322.29436        175.51886        299.04171
322.30391        175.45266        306.42792
322.23436        175.46584        311.74991
322.39536        180.54379        298.95071
322.21038        180.64410        306.51688
322.19586        180.81034        311.79981
322.20799        184.19487        315.28551
322.37099        183.18355        322.26346
322.24482        180.77217        327.51830
322.29372        185.88300        327.61042
323.15921        185.99085        333.68462
322.98638        193.26894        333.45259
326.02091        206.87217        253.72779
333.04087        210.72106        256.34680
322.20107        225.39429        285.60484
322.21566        225.70442        290.65420
327.53508        178.00284        298.80935
327.50021        177.83056        306.51515
327.54036        175.48819        312.70003
327.58181        180.81011        311.80829
327.66262        183.60396        316.99361
333.14720        183.01678        322.98732
338.33156        191.10268        254.13875
327.65328        186.03522        311.91842
327.73046        196.67996        256.58521
327.20965        211.45642        267.21599
326.78084        212.61219        272.69300
331.87252        220.22121        264.65334
327.50137        217.21869        296.04576
334.67853        179.09081        316.94506
340.31386        200.08499        318.82201
334.04801        185.86453        295.52504
334.07098        186.12213        311.93197
334.14197        191.45224        293.51865
334.56365        196.54349        294.56236
333.90057        201.72546        301.14661
343.35286        205.46602        312.49609
333.99209        201.69051        296.11348
334.14164        201.64545        311.81319
334.42975        201.74734        316.86358
336.38784        208.48507        289.98787
333.98009        240.85559        294.45022
344.62702        195.48630        295.66330
340.38798        180.98080        306.44248
340.23030        191.32166        251.60908
340.42690        196.41154        311.88169
340.64181        200.99297        301.27336
340.48565        201.32942        306.65275
340.40000        201.61960        311.92052
340.47580        201.71871        317.05907
340.38218        212.19420        251.01541
343.52802        218.36688        297.70187
340.97269        236.58321        258.96956
348.10274        200.33240        303.57299
348.05433        199.23500        311.72068
345.77713        201.81201        317.09242
345.91832        209.43631        317.10071
348.06158        214.17919        288.77378
