56.72253        126.54161        133.01253
59.29619        127.82014        118.46888
59.45887        133.40353        117.77743
64.21316        112.64325        123.13509
63.78843        112.87613        133.02082
63.15126        122.48196        126.73824
62.33969        125.07286        137.45899
62.83324        133.38211        128.18801
67.63381        133.70996        133.38699
64.53678        141.45662        138.23672
65.89868        118.62909        128.37982
67.29639        123.30882        132.69516
67.75736        137.89133        124.71371
74.53494        117.82936        104.28314
72.89164        121.33026        119.77893
76.94449        119.40304        125.96264
75.85009        120.58283        136.42472
72.19908        124.64185        127.98922
71.27159        121.57414        142.75833
74.33156        131.61665        117.79281
77.99865        97.96332        132.31602
77.47213        103.57389        91.77074
83.58253        102.99985        126.39938
80.99856        103.43685        138.50848
79.72275        112.41309        98.84549
77.05761        113.13432        129.23720
77.38827        134.41145        113.72389
77.43215        132.37654        122.83682
75.85928        133.11566        127.64525
77.62897        137.63688        122.86666
77.81881        137.42857        137.85791
77.64856        142.63688        123.11224
77.40316        142.42267        136.09716
77.75283        147.10776        134.19186
85.91066        97.77605        116.49398
85.97799        102.37159        78.42059
83.55007        103.40497        98.38285
83.39339        106.41979        91.89664
83.92010        107.91806        123.31266
83.46457        107.72844        132.70008
83.41095        111.48321        127.40578
83.47475        120.51603        107.21908
83.17372        117.98389        113.00484
83.35703        117.72734        119.63938
80.73567        122.98765        118.01854
83.28693        121.62506        123.48180
83.73799        122.68718        137.23593
83.05504        133.07573        137.69620
83.65643        137.78160        122.53651
84.11344        140.55147        131.00334
88.24420        99.37852        93.33550
88.20184        97.86948        132.94869
88.75397        106.60477        112.85740
87.99362        108.65612        138.30095
88.71847        112.94195        83.09035
90.80735        114.37923        107.68529
88.55524        111.82822        147.32764
88.25789        118.11382        88.83134
88.83840        118.04043        128.06307
88.09549        123.52500        128.02625
88.53298        126.48467        116.32403
88.01366        129.33028        137.78431
86.75040        132.71017        117.50039
88.88669        137.53159        126.21900
95.23606        90.07726        77.41983
93.56329        88.58910        86.83685
93.59397        93.68572        88.59064
95.60410        97.64392        93.62525
93.85917        99.01013        100.48234
93.81537        105.92220        86.68858
93.69240        103.16761        117.60632
96.13985        107.67255        130.67921
93.31419        116.03459        93.74269
93.51348        113.08085        102.97654
93.49913        113.45579        116.81706
91.92353        112.64431        123.34420
93.12690        113.27816        138.17491
91.73041        111.73674        151.27559
93.46902        121.34873        102.99864
97.63642        123.25896        107.85542
94.34494        120.00756        138.50385
97.81185        131.49048        130.76898
98.39620        83.35750        119.52036
98.38969        85.23387        105.95021
96.98371        98.29821        80.57679
99.17387        102.83868        106.49930
98.38989        103.14756        115.16288
100.02225        101.96533        123.12908
99.83204        108.21367        150.81781
97.98889        111.75938        98.04599
102.43718        121.05753        80.13467
98.98017        118.06194        107.82120
96.97728        119.27628        127.83501
97.52955        140.80658        123.07274
98.16011        137.28271        137.84059
102.59068        91.76602        125.98066
100.69692        98.16496        127.48713
103.02958        101.98245        113.25735
105.12428        107.32293        82.84498
103.06055        108.54064        107.81386
104.30031        107.25283        127.12926
102.73419        112.58283        103.50138
103.04260        117.90815        93.48777
101.85523        122.86278        98.11527
103.31709        122.74134        112.74440
105.02981        129.68883        88.64694
103.91294        128.21723        93.56951
103.06986        128.45391        100.16201
103.15677        138.12858        67.73471
103.23167        136.80207        81.26253
106.04622        137.90892        108.83884
104.11753        139.83351        115.02851
100.27164        142.20718        127.92767
103.74551        147.87487        122.38580
106.20943        152.61417        122.84585
108.32026        77.73696        103.75560
109.49498        77.48324        115.60035
107.96814        82.24439        98.05115
105.28210        82.55527        122.94241
107.91724        88.76230        99.01421
108.51920        88.58062        107.90564
108.12072        88.55565        131.09215
110.69826        95.40765        112.77919
107.29693        93.16697        120.49569
107.65172        97.87235        93.89785
107.87118        98.52511        122.96436
108.08516        105.71629        102.25191
108.14767        103.41768        118.41129
108.17597        103.66831        132.81515
106.68212        103.16053        137.68052
107.72646        103.45273        142.76547
106.88491        105.80821        113.44479
108.40402        108.69696        123.43496
108.29320        108.03514        147.80290
106.82381        111.88049        167.26820
107.98173        116.46155        72.53759
108.29639        117.63215        93.49918
110.93353        118.39314        98.95636
108.21838        128.43748        98.04903
108.05629        128.00125        105.62786
108.24591        132.26464        73.14261
108.34575        132.91052        107.62658
108.63107        132.87179        113.38179
106.89965        137.46767        90.91386
108.29772        136.04555        97.96277
107.97727        137.50888        125.46767
108.72347        136.06833        132.64991
105.31189        141.06156        72.04948
105.62592        142.21522        91.94897
106.83385        147.80307        117.88145
113.09258        79.12039        122.89256
117.03539        83.06496        113.58820
113.17959        87.77213        129.25833
113.49588        98.26635        98.47554
110.29025        100.24521        128.13482
112.76289        103.45501        77.43718
116.82445        103.09173        94.81155
112.92352        107.67125        118.26675
112.91028        108.29892        137.75526
111.88959        117.81124        69.06932
110.50566        117.89364        110.45080
115.58593        124.22237        85.12557
113.03798        127.70173        92.36259
116.52190        129.56867        101.96577
113.27210        128.50808        118.17256
116.43318        144.10762        121.74992
113.04268        149.29178        132.74953
116.59464        83.39455        127.72920
117.97829        93.41861        119.61939
117.78408        102.97838        113.43189
118.35753        109.96005        77.36590
119.89307        108.17061        103.01162
120.23697        112.08793        68.50868
121.25455        112.70698        85.80061
118.44004        127.37435        72.31191
117.88290        126.56878        77.26530
120.11670        133.08954        92.87806
118.37590        133.18153        113.43178
120.25567        153.27135        117.70262
120.99789        155.05697        125.29513
122.89568        82.51876        127.70594
123.24199        88.35426        132.56202
121.61035        93.08118        111.53529
122.97209        91.95370        124.77412
127.14955        98.82831        82.40380
120.03852        98.30131        108.55048
122.66568        97.87223        119.23757
123.41951        97.81466        136.16100
126.95060        101.32195        77.57181
128.29386        99.29632        125.81053
123.61487        118.07766        68.22334
122.78576        120.35170        86.94957
124.55424        118.25592        98.09736
122.74367        122.54001        92.90861
123.10784        123.07754        121.83117
125.29767        127.79013        137.83296
123.05677        134.33049        76.59602
123.08272        132.66387        106.61401
126.23949        139.91570        111.96863
122.74818        142.63581        101.47971
122.55394        147.62267        113.03446
123.06007        148.04564        128.52424
122.61717        152.76518        111.32795
125.56360        158.48069        118.08496
127.50517        81.06314        122.85579
129.19571        96.51891        88.74493
127.88496        102.09740        101.90082
127.52880        103.28809        113.38179
126.72739        101.60073        133.06602
127.94143        107.72235        98.04920
130.35483        108.38872        108.09347
127.92100        110.80891        122.80204
127.51953        117.67721        108.77733
127.93168        121.47959        77.35298
128.48739        122.92335        108.65274
130.74760        124.38440        142.09456
130.00485        128.63816        81.24669
127.75585        127.46279        123.43493
127.86660        128.12469        147.80287
127.84589        132.81183        130.50120
129.47776        132.99935        137.68043
128.43321        132.70697        142.76537
128.29171        137.50261        97.79050
128.28873        137.63476        122.96443
128.13366        142.91328        122.56349
127.65141        147.56245        105.79057
130.94716        148.44796        117.65511
128.03904        147.60413        131.09215
128.19167        153.91544        98.05113
127.67122        152.64958        110.64590
131.67399        153.76544        122.91942
127.86850        158.87939        113.07597
132.41441        88.28502        122.38571
132.52576        96.75419        116.31023
133.87601        98.46241        69.19025
132.92866        98.47533        79.15002
133.78138        105.77776        86.95211
132.63493        101.96700        106.58614
132.24685        107.94246        93.56960
133.00468        107.08043        101.63598
133.35040        105.52322        122.77055
134.32429        107.94236        137.23755
132.65253        113.46305        78.90770
134.71881        116.94742        110.92657
133.08614        110.80583        126.51581
132.85497        124.14704        92.41925
132.62351        123.01655        152.42703
134.62301        127.96195        107.22473
132.88078        128.35413        126.68702
134.60422        127.36397        147.73671
137.62843        132.67143        113.93142
132.96082        137.68354        136.20563
133.12028        143.08411        127.33297
132.74935        146.17861        104.27086
137.78577        94.86642        125.33272
137.99970        98.87710        137.84063
138.12402        113.03959        107.80023
138.09882        112.85901        138.36891
138.09659        120.29310        84.58712
137.97486        118.09324        98.31324
139.18251        116.88342        127.83512
138.17102        124.40051        98.04590
137.57923        122.57515        116.47873
145.49946        126.02922        134.40144
138.20574        132.78799        97.97457
137.63848        132.93124        105.59739
137.72559        133.85152        123.09117
139.63310        139.42938        79.73225
138.33469        137.72753        93.41818
137.88362        142.16885        88.16550
137.76931        144.15675        119.94110
139.55384        147.51979        77.10526
139.35956        152.56287        118.61716
142.88049        99.98753        122.69457
142.45728        101.80516        137.38310
144.12168        121.53545        110.99434
144.23634        123.51552        123.34426
143.68804        129.04549        88.58066
142.25068        137.76033        102.74771
142.47466        140.95618        126.47595
142.59649        147.57069        86.83689
137.58582        151.30399        108.17145
147.68209        92.94293        127.38377
147.73892        105.58564        136.06694
147.36815        112.91083        110.59587
147.58904        112.20444        126.23434
147.55601        117.88283        89.74062
147.32148        118.11944        128.06297
149.18713        123.15190        83.34246
147.14065        122.71349        95.47496
148.17990        122.74117        118.33763
150.04938        130.58648        101.26754
147.40586        129.55513        112.85739
152.58498        133.08514        127.65048
147.93934        137.64791        93.39179
150.83258        138.10357        117.97239
147.84974        141.85299        125.51671
148.50956        144.30132        86.57373
152.79889        98.76801        131.25754
153.25463        100.07463        122.80132
152.08077        102.94845        139.96629
152.17331        106.60990        118.45489
152.63122        113.36210        107.81125
152.87284        114.53465        123.48177
152.98601        118.17567        113.00477
152.80282        118.43247        119.63938
152.77032        127.94246        87.95720
152.50211        134.36911        78.78285
151.87730        135.28467        88.49511
152.29747        137.59941        136.33260
160.33181        93.43660        135.38961
158.53426        98.48073        113.33314
158.53059        98.52286        122.86663
161.62484        118.33043        104.28312
159.46482        117.86115        125.32625
157.78309        125.50417        98.62768
159.10226        123.02542        129.23726
156.94868        122.88498        142.45341
158.68759        132.58592        91.77080
156.02415        132.79659        138.04132
161.79880        95.84607        118.27677
164.09564        103.08002        132.60845
163.15911        112.76640        123.05548
161.21059        114.75289        134.60568
163.29145        118.14145        117.90102
163.07268        118.63831        143.12611
161.81336        122.78416        122.81557
166.89512        95.97432        137.87302
168.21575        102.92133        114.34808
168.80944        103.68767        137.19302
173.48238        111.40322        121.52238
175.09329        101.85653        117.41643
173.32659        102.77750        128.18806
172.89816        103.38314        133.18048
173.39444        122.52612        128.06192
172.37129        123.28346        133.02080
180.04529        110.46131        133.30775
181.13738        110.39138        127.99056
