102.96210        127.63435        178.17267
104.38881        168.30601        205.32469
104.96533        159.66322        149.85314
99.84309        193.39315        153.59312
103.94914        200.18902        162.96443
96.39999        136.39999        186.39999
103.89999        176.39999        151.39999
105.69484        192.09415        179.68178
105.99839        202.87665        178.79180
101.15640        162.95112        139.17595
112.00497        178.93196        136.79119
106.39999        186.39999        191.39999
106.39999        196.39999        191.39999
111.39734        216.44918        163.90591
112.25160        129.22631        130.95529
113.89999        141.39999        171.39999
113.40467        147.53821        176.79591
118.28854        173.23603        137.76757
111.39999        179.73333        183.06666
105.83078        177.08124        158.08110
122.88890        202.64424        195.33649
111.39999        191.39999        216.39999
105.83187        186.58295        148.58236
103.70592        182.37727        159.22338
105.30084        199.12195        166.35764
119.43898        216.48483        182.70190
111.18366        125.26557        123.25571
115.86568        130.49077        137.74075
118.52753        134.08281        151.41955
124.62883        143.56915        134.02835
110.58386        134.33455        146.20971
116.39999        141.39999        161.39999
116.39999        146.39999        166.39999
116.39999        151.39999        181.39999
120.21159        152.05452        203.08885
122.85730        171.46692        128.09744
115.86789        164.61875        149.99345
110.42592        159.39034        184.81243
116.39999        171.39999        156.39999
110.58426        172.33637        177.08658
123.02440        181.77238        199.36351
116.39999        183.89999        216.39999
125.45872        192.39117        172.15963
109.85686        175.64053        170.64925
126.65228        197.18441        181.84365
125.32893        201.54293        211.88975
127.44085        118.16382        160.69936
121.39999        131.39999        191.39999
123.11607        142.61619        191.36661
129.84868        148.97027        155.05357
131.10241        153.97895        134.89525
133.22901        161.89659        153.24749
115.33330        153.33412        196.08537
121.39999        166.39999        178.89999
117.76667        161.50612        190.44352
129.64513        173.90003        213.50485
128.49854        179.81893        227.34070
127.75534        203.72806        157.88600
128.17441        215.35783        180.57345
128.83498        205.54921        205.60205
121.39999        216.39999        156.39999
109.57323        195.31730        145.67609
130.07293        218.75636        172.45018
120.94659        224.71598        204.26680
128.76895        233.34637        197.46346
126.39999        101.39999        161.39999
126.39999        106.39999        166.39999
126.39999        111.39999        173.89999
126.39999        121.39999        146.39999
126.39999        132.11428        184.25714
129.97142        138.18571        227.47142
120.08546        124.83529        165.21200
126.39999        141.39999        171.39999
128.51081        140.82364        195.07500
120.09219        143.84433        200.84945
135.56509        160.76323        212.65571
134.11561        163.04882        161.20965
126.08809        172.07483        121.09512
130.96680        180.12367        136.79624
130.57884        183.53256        160.97465
120.57775        180.29339        126.64946
130.24031        191.19143        165.85613
129.74584        203.84990        140.96624
127.97967        211.98158        197.68302
125.99189        214.96427        208.35652
126.23361        220.80391        187.84528
122.00512        231.49453        206.82564
124.42735        236.61503        206.77427
139.73333        104.17777        190.28888
131.39999        121.39999        176.39999
143.00053        133.70462        173.31726
135.46019        141.09459        119.33429
131.35513        145.23613        130.83974
131.64794        155.41304        126.27119
133.12603        158.94880        184.22733
122.41271        141.10694        205.97657
136.97128        164.27285        190.47147
137.80312        167.80966        218.99296
136.42804        170.71491        205.85685
131.06306        172.90890        119.87245
135.27999        176.54560        226.44426
130.29098        171.06062        110.27247
131.09802        192.00403        132.57357
128.31831        196.75193        211.55062
131.70176        203.91762        162.85386
136.58510        205.18810        167.73552
131.92178        208.93416        219.21406
131.33458        216.36316        209.44861
131.65377        221.29086        198.97217
131.56913        227.46213        206.94243
136.39999        106.39999        166.39999
138.06666        111.39999        173.06666
130.68985        111.56603        159.39834
145.49090        121.85454        193.21818
142.18040        129.52845        164.83073
136.39999        126.39999        191.39999
131.82667        131.43251        151.01724
131.52600        136.36404        203.72078
136.22545        148.40070        131.10307
142.94454        152.18523        211.98575
136.87594        152.67225        125.92289
136.31082        152.97418        148.59818
141.95950        172.17510        127.37962
138.26019        176.80524        109.39992
135.76285        183.57392        156.06751
133.42661        177.17653        176.08336
136.72622        172.54134        177.21989
134.83120        176.78709        221.29276
137.30380        185.11819        146.66201
136.63545        182.36170        176.42183
136.63663        191.33434        135.55470
139.29236        188.60564        169.19871
133.45685        195.94336        150.86109
137.41206        191.87918        156.51040
132.97769        209.96200        187.16416
137.97091        201.25282        211.81160
148.03411        212.43963        183.48475
139.46897        207.80415        198.98209
136.23294        211.28581        201.48225
146.32590        215.03453        150.96368
139.39714        214.92799        205.48175
137.48618        226.40061        204.04880
141.39999        103.89999        181.39999
142.16942        126.38097        187.91351
141.39999        131.39999        206.39999
145.31635        139.24080        163.01062
134.33117        129.58118        186.58163
134.72329        129.95926        215.68218
153.98411        147.22015        230.35721
141.65965        151.04265        129.71450
141.90152        163.10382        176.99760
146.94315        160.00262        217.32050
143.40743        172.58211        171.45841
147.65048        169.28475        217.01683
141.05619        176.88305        131.84144
149.70591        174.38616        150.41694
142.27535        177.20789        220.64156
147.73313        182.49915        129.39441
141.95556        181.79500        132.93266
141.78708        186.77323        129.94649
141.37283        185.86023        176.88887
141.09906        190.98111        176.91418
140.92653        205.02953        127.50952
140.93263        199.27417        175.05806
139.93252        194.22620        181.81415
140.04663        202.65471        206.05568
143.21457        210.83854        211.92736
146.10908        215.19445        168.51214
148.91211        221.66661        183.80508
141.39453        231.64079        192.19554
146.39999        106.39999        176.39999
147.84868        111.27624        179.66339
146.44267        136.39793        147.36268
146.39999        136.39999        191.39999
150.09119        148.49885        160.77366
147.23400        146.52721        166.78470
149.90048        147.93727        177.34647
155.56005        158.23499        186.24188
147.32032        150.73253        171.77505
146.57408        158.80431        192.46404
148.91031        156.11082        175.22406
144.02329        161.54255        182.07086
143.94166        165.08881        142.03361
150.19705        166.70949        164.71760
150.94027        171.52963        182.08649
148.63284        176.83515        182.93115
150.87448        181.01913        161.70585
149.38457        184.17967        136.58428
149.90285        181.88406        172.66079
148.26233        201.03167        182.26093
149.98335        197.75581        134.28907
151.51634        205.43416        151.97813
148.74135        201.66531        201.24410
148.86490        204.98948        191.19451
154.39999        102.39999        181.39999
151.39999        111.39999        196.39999
149.36573        117.26909        181.31737
161.54186        127.91096        188.15589
151.39999        136.39999        196.39999
151.17370        140.26097        149.12526
160.15137        145.05056        158.46392
150.54470        138.65088        166.89380
149.50546        150.93609        211.23656
150.53468        151.39421        129.43397
149.96880        154.88184        200.07007
154.57335        155.00693        228.04827
153.55998        158.85884        207.27298
146.80912        161.53131        131.25987
157.73606        160.30201        132.59481
150.25204        160.77245        201.71498
156.99208        161.48762        229.78695
153.81203        160.84999        236.78635
146.58027        166.39761        134.96835
151.49180        169.63896        171.52536
151.30998        166.45852        183.38245
153.27144        167.48537        195.68614
152.60697        171.70291        176.53050
156.22983        176.72631        208.19368
150.86583        182.20011        150.22076
155.08936        178.43615        216.89858
155.30376        213.37449        155.56964
146.26871        220.96892        171.12320
157.75365        222.54758        185.29752
156.39999        104.73333        194.73333
141.60363        98.69085        152.46092
158.32859        113.18922        156.44103
163.85592        117.08692        165.73944
148.58115        110.58087        186.58135
156.39999        116.39999        203.89999
142.29125        110.47004        160.46492
166.42919        127.15281        164.97370
156.50130        133.20215        166.60048
158.85785        143.17057        177.39386
155.90598        141.68991        166.43735
154.39802        147.57080        131.39586
155.85351        147.10188        178.38552
161.19695        155.23965        220.93205
155.90482        147.56570        161.24998
157.23390        154.92971        174.96636
157.06542        158.90980        154.82524
160.36870        161.59319        172.03062
156.17662        166.87672        128.20027
151.60499        168.21973        146.13092
156.46063        174.44775        135.50191
157.67938        176.35213        142.34534
159.88938        170.23058        200.11016
159.10756        173.43772        231.66965
158.12750        177.12824        178.35354
152.76913        177.14326        223.07975
159.89748        183.51861        131.68991
153.02162        177.67104        191.67552
149.05290        181.70635        179.72438
156.21814        185.80370        221.31948
154.93588        191.01570        139.56264
160.58569        186.92808        165.05146
160.23429        204.13535        128.78509
155.84713        203.25758        191.92345
153.07400        206.77495        199.65492
157.97889        216.49131        162.07796
157.88744        215.53466        172.02333
161.39999        96.39999        191.39999
161.39999        111.39999        186.39999
163.89999        111.39999        201.39999
161.37993        131.31999        161.45842
161.13281        134.44449        172.96502
161.05397        143.96044        147.88802
166.92579        135.79516        185.17868
169.32257        138.88042        195.93413
167.43388        142.39210        186.31447
161.47401        152.95034        209.62926
159.40627        162.55193        195.84787
168.38260        158.59113        203.01070
161.93990        166.77448        213.51334
169.05769        168.75584        149.52946
164.58956        173.21751        220.11669
160.79952        176.71827        162.69617
158.52635        182.22859        146.69822
174.01238        189.03255        194.88840
164.19925        180.40450        180.34676
168.66378        195.42494        126.95345
173.89291        188.15094        185.21115
161.31193        203.06225        139.31402
167.75309        198.04795        172.47763
162.39818        200.36929        213.54491
162.33201        205.40242        158.88684
167.67127        204.12035        185.41492
165.50538        209.67313        172.19725
160.60600        213.46196        166.35103
163.99732        215.65484        155.48935
167.47606        129.21540        140.03687
170.26890        130.10792        183.93637
171.69404        131.56120        151.10297
167.19589        136.50276        170.70426
165.85949        139.70914        150.70193
174.44902        147.95462        171.13613
167.10486        147.12714        146.40455
166.44267        148.83237        229.96675
166.10037        150.98698        181.67528
170.58163        156.34263        155.57310
168.62463        166.87937        192.05628
166.51439        161.55397        222.40849
170.88342        159.91384        226.28018
166.40224        170.85760        226.44508
166.01188        173.50355        167.32488
168.24449        177.26542        181.86413
169.75492        171.51614        206.42255
168.07083        178.25734        216.32926
171.14957        183.87589        159.79186
178.12155        182.36347        206.97705
167.36567        190.53290        131.28387
169.59853        187.49330        138.70432
164.66373        180.38940        172.78674
169.77473        195.89071        140.49060
166.53267        203.92011        126.05882
166.46974        204.37386        136.99747
166.49110        201.23441        166.17557
160.73952        202.87294        209.54669
172.31030        206.70175        132.15765
167.65911        215.04829        142.93346
160.62566        214.95364        196.64958
167.83695        220.52840        167.98878
171.19701        126.62794        192.66569
163.04183        110.73240        191.56936
187.45389        127.91032        178.12009
172.07791        131.26515        195.97492
176.88929        148.01735        153.72398
173.14674        149.09392        185.17583
169.82155        152.55954        216.19202
171.81197        147.75791        226.14722
173.65225        157.34785        178.18471
173.18983        155.80112        196.49210
175.65592        155.76372        216.69952
173.52088        157.45621        221.00599
176.74342        161.78727        157.56070
167.34362        161.44753        170.59092
167.14750        166.31224        168.98315
177.46508        167.77740        175.86937
176.01325        166.37558        203.38969
173.46727        172.96585        185.84628
171.49995        176.74831        150.64748
171.26581        182.45657        149.70408
167.41421        191.37503        120.55397
175.48116        188.35072        174.18646
171.75246        195.69478        118.96290
171.91629        193.52236        219.87807
173.42743        201.19020        117.07952
171.92729        209.72340        126.06390
173.82981        211.38999        148.04231
171.43397        211.87212        171.38341
168.94709        207.56060        181.12605
165.98881        216.01428        131.81335
171.45607        211.59004        159.77764
170.94877        223.45248        128.23817
171.57935        220.54626        152.57692
176.70672        126.58514        194.35980
176.63414        125.94643        182.25587
182.42953        129.86950        147.02526
176.74882        133.37411        153.42797
177.25362        136.36399        163.55503
176.89810        141.49922        177.42815
184.22049        154.24982        209.11280
181.35594        159.82238        147.59651
181.38478        176.22177        143.36594
172.71184        175.90685        136.54755
179.35425        175.55480        166.72902
187.69305        170.05528        212.31330
176.69003        176.92318        157.38404
176.15975        184.66124        128.39892
176.69606        188.55195        141.61698
177.19442        187.69162        218.69761
176.93320        191.21703        116.80796
184.82553        193.02986        129.17888
183.66558        190.72365        208.97929
179.33777        200.87092        139.30257
178.44877        196.53861        166.77557
176.19281        196.91766        177.29244
178.39059        198.59291        184.72332
182.59101        197.96880        212.03390
181.30107        202.79344        126.75054
176.31912        201.84388        175.13062
177.14970        206.43192        124.56473
177.23969        206.96907        136.14922
174.37131        206.73899        148.72603
177.57862        213.82626        139.48990
176.83823        210.31305        160.16150
176.73869        213.30561        170.67772
180.75363        218.54221        131.15436
175.43885        216.36867        151.88891
176.89573        225.52292        155.98803
181.46987        226.16873        139.04695
186.62486        225.07659        147.16699
180.90371        118.98700        184.67490
185.34118        127.82792        190.91575
177.58139        131.58407        164.82829
185.34298        140.04368        169.82393
186.23873        149.36588        178.29006
183.93724        146.64449        186.94075
181.91290        147.52857        198.64155
184.71661        150.40974        132.19935
181.76362        155.80605        171.58084
173.81263        160.98922        128.41163
186.63766        162.18536        158.74870
182.13156        177.15156        174.21524
186.20126        177.24024        192.10829
180.41945        182.45377        156.10138
180.41488        185.18395        166.74516
184.37533        185.92647        181.18268
184.87213        187.28747        190.88035
181.87204        185.56719        217.36243
183.03438        192.97705        143.50140
185.54247        199.04692        176.74217
185.60393        202.63153        147.91441
181.83423        206.70674        130.89302
183.40565        214.49728        124.74338
184.36134        209.70952        135.91220
182.12823        210.58240        156.14356
187.40936        217.05524        158.01027
181.66197        220.79548        120.90361
187.88759        236.08440        138.64735
183.99511        126.44915        161.33380
186.02682        131.16390        161.18445
187.58820        147.00726        168.13133
185.30081        155.76523        150.71168
186.54840        158.36497        122.92101
186.11283        182.13880        216.19035
185.99628        185.47866        171.02903
188.98939        186.20306        212.29676
187.63255        190.91704        168.64387
189.82316        206.67193        165.22864
188.28860        212.03597        146.24304
187.44444        224.81122        136.44180
191.67535        232.32713        129.32328
195.37522        126.09662        158.10369
191.46823        130.88338        165.98856
190.70191        143.57920        165.89843
194.30578        151.77987        205.76840
193.45549        150.38600        148.00155
191.64826        159.52882        155.01258
196.67682        162.75279        211.91621
196.84416        166.68827        149.55179
187.45697        166.65817        167.56684
191.32272        171.19480        194.78765
190.76279        176.73652        183.27530
189.37721        176.54030        196.08533
191.26530        177.22622        206.98692
191.16458        178.54609        212.23608
191.13530        186.41550        171.84721
191.07541        181.88267        181.80275
191.10532        186.48761        185.70286
190.67370        181.92567        191.30408
193.69877        183.74309        133.68168
191.28947        185.55337        194.74222
192.66892        192.81555        191.67228
189.67940        200.62867        124.45502
192.51939        197.98963        155.20916
195.76072        196.45864        182.05021
192.98221        205.06394        119.18043
201.68906        206.54803        131.53582
189.56133        225.98829        129.84105
195.84349        142.68651        162.72287
200.10465        145.91980        182.10747
203.58645        154.61447        152.81045
198.82725        155.80289        173.23460
196.26566        160.74499        161.74788
199.17943        161.42625        175.26750
197.84179        167.98379        184.41260
198.78364        171.90084        157.35580
201.15916        167.71567        172.75331
195.92833        171.94232        191.64163
194.71280        176.97646        122.96332
180.27273        167.71627        123.13414
199.13552        176.96954        189.79680
197.65757        182.96495        119.30524
196.37535        184.62131        167.07882
196.20211        187.00570        181.80734
199.32345        186.19128        193.68161
196.28946        189.78242        134.63483
196.60089        195.57173        176.85861
207.51647        208.71762        136.01690
200.34539        206.23478        157.57615
203.67687        230.15656        128.80677
186.88439        216.91602        168.22806
196.50321        239.86510        127.86516
206.94602        151.06447        180.06002
211.40196        162.06830        189.02115
201.62853        161.05493        164.27008
201.42264        166.40364        163.29373
194.25949        167.99103        123.25066
199.18586        162.55861        131.02086
208.04878        168.43057        153.38279
201.39597        191.04749        115.21332
204.68265        194.60607        116.46348
207.07128        203.33863        120.52800
208.24230        150.41686        196.42546
212.17229        159.57374        206.92408
206.78296        161.81000        163.10910
209.40285        156.32900        171.36025
212.16308        162.43936        217.29763
206.49703        164.61689        136.25099
206.71505        166.63561        180.77005
213.91237        170.78364        134.25592
214.13393        169.12143        143.17057
210.38552        172.24374        163.88498
206.76412        171.62600        179.95538
203.76479        172.28214        207.15166
206.25269        176.81541        161.19486
208.11791        173.61030        190.30388
213.97396        184.76800        179.23197
206.23234        187.36345        173.26485
202.40557        204.78553        151.06783
209.22494        226.25473        123.56312
197.04628        231.55990        120.37719
209.73333        253.06666        121.39999
211.95521        147.35239        187.31593
215.88974        152.35468        142.02405
211.64112        151.75687        158.99941
212.13297        150.37653        166.29814
208.70715        156.36394        137.26082
215.83462        161.18441        136.85241
212.37838        166.07005        162.07715
214.20404        180.80986        154.72970
216.07614        172.97931        218.68650
207.43875        191.86574        184.12051
212.67620        197.46380        163.19175
201.69415        201.02996        157.77328
220.81176        211.98823        151.98823
219.43956        156.69836        160.49250
216.81087        152.10565        173.47846
217.54180        151.17253        185.86076
216.58533        159.99269        181.37718
218.94387        161.20266        145.29768
225.41371        155.85868        170.27099
212.12975        162.00294        172.14436
215.96183        166.92993        165.90143
225.71096        171.40243        154.95457
218.39534        183.28792        133.89777
221.98131        174.04590        137.97560
207.99332        189.79390        137.79546
217.60670        202.81551        126.52105
216.39999        226.39999        146.39999
221.11302        171.13716        164.79107
211.55835        173.06240        177.80732
221.39999        181.39999        206.39999
225.14999        183.27499        199.52499
207.96727        179.55995        119.28537
221.39999        196.39999        146.39999
212.14895        196.07973        172.16494
210.96822        187.20540        178.49766
221.39999        196.39999        191.39999
225.28888        225.84444        136.95555
230.56743        150.49345        164.46504
226.62187        155.97986        155.47089
230.29121        160.68310        159.13654
226.46939        166.13155        161.35225
214.32423        167.65250        173.06237
227.51741        175.67073        122.29360
222.12598        173.90771        125.97314
213.95967        176.91487        119.15011
226.39999        191.39999        131.39999
226.39999        191.39999        166.39999
226.39999        196.39999        186.39999
226.39999        211.39999        141.39999
228.92318        150.71879        153.71761
229.62509        168.71999        136.07040
240.06666        185.62222        165.39999
235.77499        191.81666        139.52499
231.39999        188.89999        161.39999
231.39999        194.73333        174.73333
231.39999        211.39999        131.39999
236.39999        173.89999        171.39999
238.06666        191.39999        168.06666
228.44136        141.31680        149.73764
233.51576        158.61364        150.66019
246.39999        166.39999        183.89999
