104.64070        143.91490        166.53728
105.78168        174.61028        196.93479
91.39999        156.39999        211.39999
96.39999        151.39999        216.39999
98.40256        167.11453        124.41440
101.39999        181.39999        153.89999
105.50326        203.86054        183.23023
111.40839        185.35384        134.42394
107.85527        191.07369        183.39155
107.11774        136.81286        123.53178
114.05886        140.39477        144.28879
106.08040        139.39284        129.85652
113.89999        171.39999        221.39999
121.98491        180.82555        129.96234
105.86052        181.87940        162.87315
107.72536        184.87880        184.96135
121.91816        203.56003        194.71401
105.83091        191.33149        153.33125
105.83639        200.84162        172.33954
105.89479        123.99800        119.51040
106.76779        124.92257        125.00579
111.86018        135.90404        130.98199
122.60094        146.71098        115.24168
130.34340        155.65866        130.37936
111.26935        139.93393        149.42971
130.02582        161.97342        151.77186
116.06860        150.24667        179.52976
116.39999        156.39999        216.39999
110.58820        153.34064        200.84370
105.06865        149.00724        118.08249
110.68621        158.21733        148.71055
110.58191        162.83253        143.83228
124.07425        181.39448        194.24536
125.98457        179.46302        211.48893
128.25633        181.70899        225.98642
114.10545        182.38139        172.52048
124.88149        195.43375        171.58964
114.14559        186.33415        181.10781
127.84792        202.10921        181.51630
127.09190        206.06492        165.43902
124.04178        220.77460        179.73524
126.26349        213.73206        212.66182
128.15915        117.40065        160.62553
125.83839        130.45202        139.68778
121.39999        131.39999        156.39999
121.10876        126.95572        132.80124
122.63372        149.39306        201.66667
121.39999        156.39999        191.39999
115.41180        148.68120        196.21346
125.31296        159.25447        133.47600
132.10856        162.42143        210.09865
129.27112        163.71405        179.00805
115.94054        158.88472        211.36111
102.85144        144.82687        123.84437
129.32728        177.03580        204.18889
129.95915        186.60665        173.65704
129.42690        194.34876        190.59143
125.39145        204.28288        211.05470
115.91349        190.61489        132.23240
127.80707        211.39852        176.82773
130.49211        210.56403        201.75338
121.39999        216.39999        151.39999
116.19770        107.58301        129.72368
117.74992        110.40453        137.28407
131.39999        121.39999        216.39999
132.39999        126.39999        223.39999
121.82370        126.63122        160.33425
123.64354        129.10281        165.68369
136.38965        137.18048        167.10157
133.09790        171.26324        217.42718
133.53972        170.69595        160.25873
131.43396        183.39885        139.53698
134.47700        176.61724        177.47291
132.56391        187.92837        148.44633
131.99700        188.20545        158.23089
132.52476        187.16917        129.32775
131.92101        203.24564        142.71330
132.77024        213.53987        187.45299
133.09557        224.10124        167.90458
123.21218        231.26883        201.92715
134.73333        106.39999        183.06666
131.39999        116.39999        146.39999
123.04595        119.26058        113.52821
133.96634        135.84213        121.70260
131.39999        136.39999        226.39999
143.58606        139.39540        145.99413
127.85950        142.28231        197.74482
140.77523        157.62257        213.21197
125.72929        149.59785        187.87876
132.69793        165.54535        186.76856
132.27445        178.38543        116.92506
132.75070        176.34630        109.07394
144.96523        180.23926        181.40404
131.63062        197.46169        131.01504
130.94004        199.80119        203.45226
136.73634        201.41589        217.92528
136.49766        211.33010        171.77724
137.36224        220.67991        171.71468
133.11568        222.48841        195.26891
135.00359        226.08292        178.59459
131.27817        226.26912        211.86062
136.39999        101.39999        176.39999
141.97965        119.87458        126.08142
141.77152        135.38895        172.61468
138.51673        123.27915        186.04634
140.99240        141.64884        161.27837
131.84878        135.19703        200.26450
143.11926        147.10653        227.01024
148.43365        149.55899        176.48924
142.96848        155.50899        198.98575
134.64256        160.74953        144.09708
138.28802        168.90145        204.83919
136.72403        178.55291        226.35131
147.66553        181.45917        161.28218
136.82200        181.94092        176.56111
139.52399        181.66917        107.48378
138.63027        193.00614        141.72431
139.48866        192.19918        165.96896
141.31491        191.37107        171.51175
137.46204        199.57320        132.64287
136.35475        210.98522        222.47470
136.75926        210.19403        201.17696
141.62402        214.40416        212.02829
136.05554        216.36293        201.57713
136.31238        220.59601        206.53400
141.39999        101.39999        171.39999
141.39999        101.39999        186.39999
141.39999        106.39999        176.39999
141.39999        116.39999        181.39999
135.73817        114.75415        172.98930
134.18900        129.65307        139.46679
143.89999        126.39999        201.39999
141.76263        135.34379        120.92830
146.64466        140.63657        130.50746
152.79987        157.55618        207.64774
148.45376        161.16455        231.19978
143.04882        170.44214        220.12909
143.45880        176.57219        170.01362
145.92309        187.64051        132.64950
148.78625        183.68097        149.01907
149.96764        176.56605        148.37011
141.15592        186.16567        176.86775
138.99126        191.04308        150.75500
139.95448        194.11210        155.65940
140.08657        190.99379        177.78139
141.30516        196.39601        171.19351
140.64040        196.19156        179.19612
141.88743        208.12270        127.02031
139.93100        202.21087        178.52194
137.59270        202.02008        212.04980
142.33540        210.31151        162.19125
142.63223        203.59547        171.98225
141.82536        205.02251        189.08150
143.51088        206.69836        217.32037
150.07942        211.79976        150.76250
147.51499        216.10029        184.95395
143.34025        214.98850        207.09981
143.51118        213.70513        195.96852
141.42692        220.73920        202.92096
139.91147        226.44522        202.99042
141.80637        230.62667        207.18460
144.24354        234.77510        191.97190
152.43800        102.64387        179.21935
146.39999        101.39999        193.89999
146.39999        106.39999        171.39999
145.60807        110.54226        179.06059
154.74578        129.13788        187.41241
146.93408        136.98293        142.13140
133.99455        120.19638        179.57584
146.78840        139.04161        136.28218
148.61171        149.75117        161.53364
148.83729        153.02813        189.77448
151.86295        150.18214        129.35589
159.62261        149.50601        227.93245
151.59850        159.90027        130.73821
146.56307        155.78740        174.86813
154.62690        158.48306        221.01191
146.69937        166.50139        165.75176
146.78181        168.75336        215.92854
147.88282        173.43968        135.15366
149.88093        171.52190        167.66778
147.47955        196.41767        189.49383
146.93825        199.94121        137.23048
146.93474        203.01303        200.99521
150.04566        209.93009        175.38694
147.10305        206.52689        190.83412
153.62928        211.58874        141.38909
150.71434        220.68594        167.54903
149.72596        225.77258        187.93358
147.14873        224.00180        197.91491
151.39999        106.39999        196.39999
151.39999        111.39999        191.39999
153.91360        116.65651        153.99564
143.83292        110.58222        167.58314
157.74789        136.16486        170.88024
155.04914        136.90419        136.77299
153.56264        136.46706        161.18625
162.59454        139.98190        190.99973
154.47689        144.90356        159.44671
150.54088        165.23363        182.16260
151.56307        166.07093        195.83149
150.63410        161.24017        226.31410
146.31736        166.19617        131.46391
145.55249        166.94134        148.67338
150.73606        176.93608        173.20132
150.14228        185.17605        170.49527
155.13094        191.37801        138.93939
149.25042        200.47390        183.49361
156.19776        199.16307        134.10977
157.19666        212.45942        161.76835
148.58111        96.33077        162.83116
156.39999        103.06666        188.06666
159.90204        116.44476        161.64317
158.68640        127.47152        156.13383
160.94370        126.80714        162.70369
148.58393        129.58355        210.33553
146.62222        133.30982        207.48585
155.84193        144.04197        147.83061
156.32452        146.61116        170.98230
153.65017        148.07050        136.29406
155.21870        157.10346        168.59681
155.03647        163.65743        189.15104
151.77238        160.46862        155.67765
158.25328        161.26303        173.40028
157.67263        166.96286        178.78141
156.11783        168.08429        214.30227
157.87948        177.14984        133.56428
155.99606        178.33567        141.68792
155.99208        171.67306        199.04802
167.67444        168.76788        203.89642
158.12470        179.80169        178.77292
154.40720        178.66740        217.35486
151.56674        181.34994        193.62627
157.62983        185.66706        136.79026
159.83537        189.62363        162.46433
152.92963        207.30063        198.11506
156.02633        206.49955        191.48173
159.95086        221.54003        185.54643
155.94398        212.07278        196.61667
159.52243        214.92554        155.71992
159.33433        216.03306        176.97043
156.22807        223.03471        177.02721
161.39999        96.39999        186.39999
146.17735        100.90018        164.26233
161.39999        111.39999        196.39999
162.14104        130.95475        183.50443
161.09213        131.43845        137.02650
160.26449        138.36495        136.80348
161.27123        138.24473        155.84996
161.39999        136.39999        216.39999
154.17801        130.33197        211.50253
151.41786        132.90192        202.94362
162.27471        147.96562        147.72677
165.80714        146.44768        175.33233
170.48261        149.27192        183.35625
169.37934        154.08453        196.75683
173.18964        150.05280        212.64279
161.47410        153.30156        215.90911
166.69005        160.53000        224.66933
161.59096        159.27371        231.54621
174.60364        163.03935        155.59679
160.84674        164.81888        201.53260
161.83117        165.07454        212.93513
162.12901        165.09864        131.64731
168.78760        170.99684        149.58667
164.00352        168.61452        192.07447
161.82430        171.31474        226.27158
161.64632        173.27099        221.01868
160.03670        178.60066        160.53737
159.11476        182.10074        144.80482
161.23765        181.54344        171.58717
171.79451        189.11784        196.05549
165.21163        179.25010        216.69063
162.15303        186.26818        130.92142
160.55871        187.41950        154.74282
172.03580        188.03029        185.70417
161.77893        198.02589        216.66493
167.49819        199.36482        172.11557
159.75572        204.27492        209.43759
164.07589        206.64783        127.15843
163.08768        203.93076        140.09145
167.53183        204.96422        185.65303
161.41222        207.26156        152.80958
166.57070        202.41012        165.49343
172.90829        211.83385        172.52163
163.97800        214.25490        138.59350
170.36304        215.01245        144.81448
163.10740        217.76623        169.65218
162.00602        217.44014        196.60510
162.89532        221.07556        161.29363
167.65665        111.72405        167.14277
172.16499        118.12739        185.41586
170.25882        118.45141        171.52953
166.16888        126.20469        164.35302
166.61053        134.12101        160.23934
166.66084        131.38911        172.05252
165.93005        130.87316        140.20026
164.70438        134.94939        150.42816
170.77177        147.52893        156.33722
167.43457        151.68221        144.36360
163.86952        175.51801        166.63173
172.96691        175.90139        137.72398
166.87127        175.14437        173.77842
169.89035        173.38202        183.34093
167.76333        177.06331        190.13523
175.86449        181.96285        158.72512
177.17277        181.57502        207.71591
174.69155        186.48208        145.28851
169.51750        187.51101        159.39171
174.55976        184.58681        176.28863
169.69261        189.37666        137.96771
170.95582        197.47180        124.51303
169.59152        193.29576        131.07498
163.35315        212.23498        124.17329
169.11586        215.23382        158.79921
172.19636        221.73798        132.25823
166.89999        220.95960        156.57831
168.61669        125.70745        184.16053
171.67419        130.89446        152.36541
172.76908        136.38884        159.73580
173.63200        136.46323        177.90418
177.15348        145.31774        138.02760
175.95280        148.59573        151.46551
171.90822        141.55616        178.84453
171.65057        149.44218        169.83121
173.99035        159.32877        171.27168
171.70922        157.59755        178.11763
172.22405        157.28994        145.35782
174.75574        166.13835        166.14329
176.54442        166.14814        177.11050
166.00717        162.01835        215.39816
173.25527        174.83704        227.93624
177.33661        175.48921        166.91820
177.36620        185.18357        128.19174
175.76432        191.58713        173.40932
172.83995        191.69690        219.61365
171.53692        197.68869        141.72880
175.67430        196.61779        177.22077
176.12376        206.90600        149.72369
177.68392        211.52910        125.88535
176.08733        209.02993        132.07356
171.73898        207.43055        136.30893
174.50882        223.77953        155.24251
171.71042        221.19585        169.69830
159.43559        218.54463        133.80186
163.20336        220.40963        144.35251
173.89999        236.39999        141.39999
176.88888        111.45563        176.92067
183.38087        125.41772        176.64378
175.17331        131.80652        181.53615
179.63094        132.10271        141.63466
176.71837        143.40913        161.11068
175.06453        146.92104        166.24066
178.84687        149.17189        188.92411
179.47407        159.00808        148.54071
181.61034        154.69238        212.01393
181.85265        169.38197        212.97190
186.54504        179.48401        140.91341
177.10475        176.74840        156.52180
177.04719        190.93245        210.08442
176.76430        197.91768        128.83560
180.57213        198.95475        140.74509
182.40724        197.47596        213.47861
179.94493        201.02378        166.29075
178.00082        204.59618        175.38177
178.77327        198.74442        186.02236
179.14793        208.48317        143.41262
175.90677        211.48381        161.67529
179.08036        126.25054        162.22260
186.82630        130.14260        159.21824
180.45689        139.20264        170.46909
191.33354        139.77477        160.24528
182.34913        146.75595        178.39882
182.21555        149.25931        168.12289
185.72504        149.62557        203.07900
182.63087        159.92746        160.84816
178.95121        154.21532        171.72276
171.87162        160.67712        129.08782
179.64207        167.40808        121.95796
181.55968        174.55547        160.97953
182.58912        171.65630        191.21644
186.13507        168.94366        196.19590
182.06981        176.63819        174.57518
182.22579        179.33690        191.26482
181.05088        186.64153        166.31850
182.27285        181.69626        211.74461
183.38378        182.32545        216.76844
182.45963        186.08779        181.76657
190.98205        184.62314        195.17445
183.63051        190.95004        180.41579
184.12210        190.06940        210.46270
183.36229        201.79418        127.77463
185.41043        198.86006        178.04715
183.99555        203.67403        154.20102
182.84858        215.78300        138.45386
183.55804        218.11167        151.23211
184.34904        221.85877        121.43350
183.22381        222.31738        132.13459
187.94096        226.54516        151.61199
181.39999        241.39999        146.39999
186.92061        118.36255        174.14181
187.29426        118.45706        160.73411
185.89858        135.60034        150.45725
184.08052        155.86518        152.02116
186.69903        161.51288        155.15486
188.23935        157.20342        180.69686
190.37156        161.09756        207.00791
190.25872        161.90438        211.97985
186.04285        171.58380        172.01877
191.21715        172.19115        183.59886
185.78791        176.62723        202.13420
187.23963        183.07122        176.23344
185.93172        185.84673        171.53923
188.92790        190.85751        169.96448
193.27763        191.24458        193.37789
185.54888        192.56475        146.02790
181.76825        193.49337        150.91101
185.66603        196.78623        165.78533
189.00980        202.08715        147.20790
191.92968        210.79587        144.37537
182.67722        206.99673        163.51110
188.30720        214.20232        128.16977
185.98152        215.19890        155.64194
190.48513        216.78637        159.87830
191.49025        231.90133        138.76468
194.92233        143.57028        183.12910
188.85341        150.17962        180.68185
192.73339        149.01398        150.82129
194.57568        153.44763        171.46013
192.73965        156.16889        206.43884
195.45246        155.67740        133.61131
212.27462        167.43507        138.53966
195.62135        168.82455        160.83935
198.90688        161.22512        152.67718
190.81201        176.10843        167.62790
191.03232        174.58278        208.07029
196.38783        175.25720        123.57341
193.51230        184.52140        184.36572
191.29492        185.87402        209.91967
188.12264        191.74984        131.65846
192.17416        194.26592        122.76140
193.85620        197.46099        157.50433
196.13892        195.95782        181.98348
191.20969        201.82222        126.47639
196.77130        202.69980        120.17734
190.66738        211.89290        120.50686
190.45162        212.01570        136.90844
198.12020        215.97201        133.32172
196.53072        147.64222        165.04027
202.22382        147.38323        180.52215
196.08867        153.87407        176.90286
200.25748        157.84181        165.84357
197.43968        161.29818        175.79404
195.83020        161.44347        182.17036
198.19258        166.24657        173.50121
193.60750        168.31611        191.28353
198.15041        175.19597        190.16474
209.18026        180.40808        120.55196
197.25871        183.35391        166.49045
194.46372        185.52521        171.40746
193.15561        191.05747        173.05522
197.85555        195.17184        176.93562
195.97629        206.99575        136.41925
196.04033        226.32085        146.30928
201.31601        238.38596        129.94225
204.28496        154.04941        140.27298
206.16521        150.92902        172.55148
211.96841        155.37131        183.28707
203.27515        171.68561        185.60926
205.72558        200.53594        144.51848
206.15104        199.71639        130.67541
203.21936        204.89746        159.40014
205.73057        224.79927        137.47449
201.86018        229.63216        125.36474
208.27499        253.27499        127.02499
208.05969        150.80447        164.58180
208.00854        158.16919        192.24778
209.22842        157.17810        208.58756
206.66561        156.23750        164.82847
206.89183        155.86165        173.12008
207.63493        162.47058        153.47560
207.10035        161.03398        161.64989
206.88560        171.96867        155.72664
207.33951        171.54519        165.68423
202.18111        171.87673        172.07122
206.53170        178.58575        158.59001
212.52021        180.93559        182.91841
202.40923        182.23762        176.80139
211.96060        210.51809        130.73480
208.90061        212.23806        141.42596
206.81843        209.95613        131.14250
221.77036        222.14073        147.69629
206.59546        237.83388        133.87003
206.39999        246.39999        121.39999
212.34098        148.29446        173.45581
212.81095        152.41346        145.62172
208.85800        147.74029        158.76818
213.75475        156.09628        136.27124
214.85303        160.17366        142.56474
211.86457        162.33063        126.87238
210.15289        166.41590        165.23047
213.95001        177.99338        157.71217
208.04828        171.77651        181.51444
207.11247        169.35846        192.77170
211.08282        193.28899        133.73429
206.24570        187.60926        188.13575
202.40968        186.05778        193.37871
212.44444        192.60549        174.01647
211.67935        201.58737        121.95300
206.10501        201.09320        166.84945
212.33019        232.66780        128.91032
218.70794        155.78380        159.81079
220.24883        156.23634        171.81481
220.66931        165.42429        169.61391
219.85048        166.45313        156.06813
225.28888        176.67777        197.78888
216.78945        202.89153        137.56282
216.39999        248.89999        131.39999
221.71923        148.62360        175.49804
224.73333        144.73333        201.39999
228.36429        158.63647        158.10328
226.14319        160.27141        150.23077
218.56986        161.24998        224.12078
214.12480        166.27220        221.64440
225.60300        173.69767        127.82755
224.73333        186.39999        143.06666
221.39999        193.89999        151.39999
221.39999        196.39999        191.39999
221.39999        201.39999        156.39999
225.23629        148.61290        140.59314
224.49561        147.16440        146.71902
226.39999        156.39999        211.39999
226.39999        166.39999        211.39999
216.00689        176.77037        119.56695
239.92458        189.67868        146.89180
226.39999        191.39999        186.39999
234.52499        184.52499        169.64999
226.39999        196.39999        181.39999
226.39999        211.39999        146.39999
211.70143        196.51374        119.06622
231.39999        211.39999        131.39999
230.33940        163.37602        141.23069
241.39999        156.39999        141.39999
227.31052        155.08155        130.65435
