92.46720        137.49579        142.73904
97.54048        137.66750        144.39857
104.45074        134.93415        141.27495
108.16564        149.06394        126.11078
99.83239        145.73595        131.72507
102.59826        147.00904        146.10686
102.13791        142.03359        131.02839
101.95963        140.49473        146.08613
99.98762        143.23261        142.23133
107.69097        135.62526        134.38102
101.36670        135.01354        140.90895
102.99955        140.32675        139.06888
101.69328        142.84752        137.46455
101.76650        146.38318        139.83971
106.43141        134.47064        118.45099
104.64105        131.29022        129.78247
104.10284        136.36153        139.00815
104.24922        138.26958        135.82030
109.19641        143.35430        134.95394
104.04501        144.63073        130.42681
104.36858        157.58824        127.19023
109.17255        132.48023        123.43812
106.19089        134.07166        131.99330
105.92561        138.02462        132.02757
106.12117        147.33492        139.39369
104.90958        148.62316        141.94562
110.22196        126.29906        129.43269
107.82414        131.39423        129.68242
107.94647        136.64660        121.32066
108.13094        140.47620        134.78744
107.59159        142.98183        116.01832
112.30909        151.25190        117.05928
116.73527        123.73686        136.05719
109.83811        126.44116        119.55237
109.54924        128.81533        125.22850
109.91330        130.78293        130.14638
109.87877        134.98540        128.04118
114.44119        148.11875        109.81343
109.98292        149.29782        129.27219
113.63571        158.37084        115.39886
116.22936        123.76969        123.41152
112.10363        122.73265        128.11113
112.83480        128.88320        122.98472
112.27059        130.70171        131.80731
111.93935        132.73054        144.67699
115.18309        133.66150        145.30772
111.73094        136.23575        142.08162
113.11330        140.02920        111.20361
115.06071        136.62414        124.52974
115.08398        140.38254        144.12245
116.32666        142.97530        117.62800
112.70378        154.38134        111.83584
114.22962        157.68083        121.91575
114.15057        119.96394        128.58281
114.89220        124.64061        130.45128
113.49326        130.55690        134.00224
117.43329        138.08831        116.21138
114.56787        141.62356        148.88722
113.44620        143.08269        114.04524
120.86257        153.58310        123.83919
114.06938        146.83522        119.80719
117.98163        161.53293        114.68028
119.25549        124.02084        114.85160
115.78812        122.83527        135.73670
115.48996        124.63527        117.92677
119.21430        125.59071        143.52166
116.20073        125.91336        146.64709
115.55249        129.03603        117.14969
123.05819        133.35650        132.49183
115.38654        134.60605        131.69330
115.60907        134.81955        139.86024
115.57633        136.54367        143.92921
115.64852        140.43686        109.80696
115.50584        138.90903        138.90576
115.55119        139.90106        121.70720
116.01840        143.24822        109.52285
115.33140        142.60239        142.59527
115.24813        146.99983        116.08334
114.39562        156.83418        119.69718
120.33132        121.42921        130.72325
118.66070        125.07329        111.25325
118.21689        128.66257        133.44079
118.05524        128.69157        138.75286
135.56791        128.00971        124.18512
118.14818        136.10235        120.08573
118.41107        136.20005        129.95667
118.34003        140.29349        144.15796
121.87454        144.10898        128.80979
119.54908        143.95096        132.98245
118.06388        151.58492        127.91834
119.10332        154.81810        111.81110
120.64549        117.06302        132.62965
119.80655        119.19612        120.14008
119.76670        123.30664        119.80365
120.29886        129.26124        133.50482
120.14001        132.32838        142.50437
120.49022        141.49372        111.78857
123.88781        142.89363        108.23524
119.96682        149.45796        111.55919
127.06241        149.85180        116.85171
119.93716        154.01440        107.45169
123.46914        160.86040        112.10568
122.23056        120.43009        117.66677
121.95834        120.78324        125.23940
122.42015        123.18468        121.91409
125.10281        124.99554        146.18889
120.78157        125.79898        131.84983
120.91438        128.61467        114.42525
122.32186        129.16027        116.31103
126.62705        130.22074        144.56535
121.66906        132.67700        123.31771
121.65322        146.41250        119.80707
121.92027        148.86827        125.43812
122.45051        150.77138        110.03241
122.13579        154.57888        111.63098
121.98593        160.71536        113.87632
123.84091        118.95703        128.56688
125.55287        123.88881        138.94359
124.23840        122.27363        143.39332
124.37263        124.38263        136.09016
123.86041        126.58134        141.97991
123.84793        129.12259        123.14086
123.70696        129.47592        133.61059
125.40036        140.78855        103.93587
124.30641        146.52715        121.47103
124.01061        151.61018        122.53982
124.23859        156.93602        114.83942
127.89019        126.01079        133.92315
128.71646        125.65851        127.44880
125.88046        132.57879        135.33537
125.48046        132.48711        138.65064
124.63541        133.45458        115.52083
126.35740        134.78286        147.38333
124.40728        146.61042        109.18222
127.14212        154.54966        119.45135
130.81605        156.42914        120.73734
129.78744        122.37798        129.58943
126.38626        124.61245        142.11996
127.96724        128.87154        133.53418
127.67642        129.66740        138.86494
128.75831        137.00105        133.15896
127.90922        144.57119        117.34044
127.54334        146.51452        117.54445
129.03050        154.12904        125.04165
138.07862        163.73936        143.01306
129.10153        126.65526        145.28400
130.53834        130.10022        139.23445
129.54065        146.72576        118.27405
131.44306        151.41803        128.15134
130.37252        162.54155        132.00855
132.86500        132.80459        145.74068
139.51383        139.73707        134.62776
134.71130        162.57417        137.77340
134.57144        130.81124        130.17654
135.94135        120.76418        127.04184
141.50148        155.27089        134.37456
138.07824        123.90294        127.76755
141.10532        136.35312        122.99020
139.97348        134.12447        128.04129
139.04193        136.85623        139.04650
138.63754        138.90163        129.30458
141.90280        134.47573        118.16047
141.21736        150.93712        137.44131
140.67580        161.30215        147.81180
152.72096        146.59443        135.27085
151.48244        157.63538        143.00567
142.02271        159.22836        141.27969
142.81785        168.81276        146.36171
143.38940        138.37407        127.93499
144.86949        148.23241        127.88888
143.36204        156.85376        139.73333
146.42275        132.95047        125.77514
145.92342        134.52849        123.59710
152.75774        139.50217        115.14126
146.14774        140.02212        125.25777
146.60232        156.77900        139.80773
152.18475        126.54952        101.90196
148.35438        134.45416        123.94763
150.01981        141.47685        111.40929
151.29288        145.35093        125.52260
148.01025        148.33894        132.28038
149.75037        135.06677        117.61525
149.63317        136.61119        123.59141
150.03387        143.35976        129.74760
151.23647        145.20021        118.47198
149.87634        145.13779        131.75968
149.99543        149.01476        143.02627
150.23517        153.39953        142.56085
159.47275        132.23659        110.10310
153.41725        133.82782        117.96322
153.38575        140.48539        132.40767
151.82967        142.84589        117.83688
151.96384        148.37870        132.14779
151.76093        162.74586        142.29712
154.40014        128.70005        125.39903
155.26538        132.85489        124.93233
153.87579        136.93137        111.71679
153.42859        136.92484        119.44044
153.76321        140.60907        121.61182
154.04016        140.24754        125.62905
155.38823        141.04117        139.31425
154.07946        143.46437        122.11072
160.86179        143.58796        122.41695
153.81574        156.97231        139.86503
159.55052        129.92606        120.15130
157.38366        136.52072        109.77757
155.73491        144.98256        118.45072
156.73797        145.57387        133.36322
170.25522        145.86955        106.81231
157.86936        151.95436        137.12599
160.55885        132.83779        114.28363
160.37473        130.63837        127.87522
159.93070        132.33015        121.41511
160.01263        132.97302        130.21722
160.17961        134.07875        132.68105
159.87984        134.54887        123.71049
158.92853        135.06224        125.67795
166.21076        139.40163        128.28261
161.68974        143.58627        131.71136
160.33313        143.16587        141.93552
159.53126        146.98424        142.91245
159.95358        148.54273        138.04780
160.44102        149.05697        141.90930
165.73782        150.67411        140.62913
162.59303        124.00842        123.69061
162.16285        128.03600        115.49156
163.50185        128.02452        128.76085
161.87782        132.75116        128.10948
161.83164        134.95773        133.72415
167.68185        135.53746        107.77664
174.73448        136.06669        135.82451
161.97991        140.60351        113.90573
164.60241        130.99055        105.46967
164.17329        138.33431        123.80085
164.20924        138.36039        113.97980
164.58224        138.19964        142.29624
164.00840        139.93455        125.81598
164.03810        143.91464        117.13069
165.55629        129.10517        104.27045
165.88164        132.88478        125.74424
166.62499        140.61622        106.16992
165.72466        144.92955        139.55790
167.06173        144.85496        142.41743
165.49875        144.50137        114.08712
165.99360        147.14778        131.41056
166.23263        147.03192        137.42357
169.59710        134.56080        101.97359
168.13872        134.80857        104.25216
170.48504        140.75777        117.02982
167.55651        144.60644        122.74237
169.11610        147.39141        133.98817
170.25581        132.64622        139.39225
169.84263        139.97994        107.61634
186.41305        143.47411        122.94349
173.27958        130.75490        135.25732
171.67144        142.97243        134.11088
171.74797        149.25863        110.85553
176.98327        138.63411        106.77496
189.97198        134.34652        118.69077
174.15437        137.19365        141.97351
175.19621        139.46323        128.70482
173.47336        142.81487        110.02816
173.93931        144.16544        117.41164
187.61779        142.76795        133.23330
176.07559        145.05081        130.11570
178.28251        136.52054        111.73850
177.88411        140.46603        130.18328
182.81417        142.89731        106.48342
177.64333        142.84995        114.30396
178.39018        142.79061        121.96317
177.92574        144.77319        112.90588
178.88286        136.84003        109.27913
179.77389        140.63790        132.10902
180.13653        140.50680        135.51818
180.01491        143.05032        111.16054
179.75408        141.78030        119.83308
183.43464        143.36396        101.78804
183.86200        138.69005        133.79577
183.29359        142.60255        118.36349
183.18720        143.07132        127.93583
184.84052        146.42506        109.82154
185.21062        150.92207        97.64778
185.33154        139.83697        103.73284
185.53680        146.77845        101.89121
193.01128        130.91823        129.47606
194.88538        148.54374        102.41563
188.58340        142.40106        128.49666
193.37787        152.85511        94.80525
190.20338        138.13275        119.53987
193.60819        126.11055        128.00980
191.63561        131.05178        121.56806
192.28123        130.87773        126.79411
193.66568        136.43929        120.96566
192.29271        136.24601        125.60980
191.78926        138.55426        135.90146
191.97300        151.08779        100.15178
194.12987        131.01912        121.91330
195.61669        139.17285        116.78439
195.75578        143.30545        101.32321
198.50634        136.32532        117.86011
198.22278        147.23533        106.27796
198.79353        155.31373        89.99636
201.15852        125.54651        126.49032
199.76226        134.49809        127.97861
200.12596        138.66206        116.05368
199.72874        152.68994        95.72142
203.97060        154.33494        96.23871
201.89553        129.31837        127.83168
201.87962        132.47761        123.25201
202.21302        134.30930        125.38431
206.73610        136.20197        125.41453
202.47962        137.85823        137.05781
207.43980        130.15312        130.61344
204.94224        135.85024        118.25920
206.07666        135.99323        120.06100
208.05076        128.75662        128.16816
