106.83490        121.95070        102.75850
113.01424        114.55719        102.81535
110.40628        122.49588        101.89921
114.92432        133.11358        102.46819
109.90628        114.69197        118.55774
112.00925        116.78710        108.35468
112.76442        119.59920        102.88756
110.05398        121.88051        97.83524
111.04127        126.90840        98.48743
110.43540        129.70401        103.70912
113.29689        140.14268        101.65635
112.21171        111.25260        113.93214
112.82504        118.19278        117.21773
114.83268        120.29066        93.95334
112.62073        123.82941        93.92002
109.62849        126.21912        102.06054
112.30376        135.41017        112.85247
111.38032        138.49378        110.10727
110.15804        138.94746        107.43553
113.69664        117.39292        97.92967
112.02521        121.41160        97.76572
113.45443        127.40775        95.07430
115.39899        133.91224        98.58670
117.00707        131.41802        91.94544
112.10709        132.05825        96.07344
112.24907        133.59426        101.82760
116.09086        107.91579        111.59292
116.12040        114.88435        93.75106
114.60750        114.08340        110.69149
115.43511        115.62277        98.92056
115.75644        121.60810        98.71721
113.73946        119.50879        100.02477
114.85585        123.42505        116.77360
113.81665        127.74125        105.43895
114.38668        133.41362        105.01948
115.57132        136.88308        111.79428
116.82714        132.72055        141.51233
117.78373        141.45385        172.39983
116.65128        144.54241        175.99179
117.67165        151.31818        170.37950
119.16436        106.66607        103.20798
117.50407        109.97020        93.95383
116.94053        111.19054        98.76559
116.74774        115.66417        114.76737
115.98490        119.28520        108.02093
120.69978        121.94932        145.25127
116.44587        119.87052        147.11060
116.54664        121.59133        103.13421
116.22762        121.79891        111.52537
116.09490        122.17245        114.04642
116.43675        126.02586        115.53123
117.35793        127.39575        89.25287
117.17397        126.78825        107.84072
116.52447        128.54616        116.84218
116.48313        130.66915        121.84215
114.74367        139.62308        139.88979
118.41582        153.81803        158.58185
117.31061        104.42655        107.78603
118.84853        108.02843        95.23533
118.21772        116.07074        88.79627
119.22357        119.72801        84.43285
118.71757        121.71034        85.66751
117.85596        121.66881        109.71928
119.17250        124.09259        86.02001
119.80339        126.34891        141.14345
118.48457        126.96862        86.18077
117.86265        125.58872        103.54675
117.21593        128.40467        103.40065
116.95572        128.58045        119.47212
117.97925        131.83580        124.05245
120.13888        131.53979        128.22549
122.65870        135.04711        132.27571
117.73607        131.45478        135.75584
117.44208        131.06627        138.37703
122.20945        137.93731        160.67132
119.62976        140.36372        167.50354
120.90167        152.36657        147.80553
120.54151        151.10524        184.42597
119.03987        153.63411        153.91808
119.39312        155.89537        186.65522
121.84936        156.12270        184.11015
119.03797        107.76077        100.25565
121.39983        114.78527        114.38946
122.36954        116.48955        86.60514
120.01512        116.32735        109.97636
124.21896        114.09253        109.59889
121.92532        119.02226        77.54602
121.43708        117.55275        84.17335
119.59145        117.05986        114.66034
121.58325        123.29985        102.62073
123.07369        120.66926        152.33824
122.79043        120.49743        87.43096
120.56852        121.57833        107.98605
123.78651        121.97828        156.82620
122.83847        122.49450        75.94986
121.46526        126.94480        89.14772
119.32843        126.44441        114.17206
119.63663        127.42369        108.14660
121.39257        127.93593        125.91077
119.85941        129.93963        116.13685
120.54937        132.45327        90.15879
119.41809        133.48247        102.77171
119.93430        136.15454        112.66571
122.11116        145.22290        99.05757
124.17646        150.07493        138.50982
122.84761        148.42533        101.88325
119.88213        155.82301        172.27209
120.92787        156.82388        146.61911
123.98317        158.35815        174.14035
119.79873        159.28423        173.78656
123.56527        110.40885        92.36981
122.05328        110.25285        97.56678
124.98969        111.57961        96.43444
122.01738        117.23664        82.05499
124.99802        116.87781        91.08632
121.87092        121.50180        111.49865
125.37190        125.07473        161.35430
121.85352        123.84385        88.14439
121.79918        125.08026        109.20822
124.65415        125.07357        121.38753
123.91391        125.27277        158.60363
124.62160        129.08101        97.48622
122.06400        128.14780        116.87167
121.62941        128.69680        128.10182
124.68245        128.55620        162.56834
121.99531        130.45056        102.19456
121.40171        128.95063        107.90791
122.05787        129.91756        120.33515
125.79152        129.13005        165.74902
125.01702        126.96841        80.44527
121.79381        133.22204        104.34989
125.99313        134.67563        116.64372
125.84228        139.86127        138.10425
125.68591        146.33873        95.36241
121.44674        143.78908        170.42959
122.08890        147.11851        174.71797
126.94936        148.07314        180.34530
126.53896        148.57265        132.38875
121.96827        156.83676        177.48083
126.61876        111.86672        102.48461
126.98720        113.89270        86.95403
124.16275        117.65008        77.78340
124.68811        117.59154        79.63831
123.79546        117.45565        88.19302
126.67230        116.88108        95.68228
127.36732        117.13558        98.13883
123.66740        119.32532        111.85250
125.88197        123.78155        90.30111
124.33720        123.50062        93.21953
124.30735        124.15809        108.66847
124.91894        124.10475        117.42915
127.53500        125.63141        132.05555
125.53182        131.15202        98.39252
123.76524        130.92351        83.52388
123.60677        131.62874        92.00558
126.53528        132.59395        168.75003
125.24138        134.49661        100.08959
125.36238        136.05199        156.16809
124.90798        135.28259        103.55792
126.45701        135.82503        172.14744
128.78335        136.23950        152.16961
127.64047        137.80294        182.65179
129.55671        144.03989        145.19756
123.55800        142.19041        168.27961
125.66114        142.32447        172.42744
127.12415        145.02356        163.77055
127.63268        145.07118        165.88017
127.18127        147.20191        172.77325
123.93313        148.99028        183.96064
126.35703        149.43161        162.37091
124.03651        153.69806        141.99556
126.58427        155.43228        168.93129
128.08933        156.06233        159.59219
122.63080        156.63524        179.72753
125.73326        155.49178        142.79594
126.53307        156.92130        165.54227
125.78503        107.05967        97.35550
126.40241        114.12755        97.83246
129.46779        117.73017        102.46772
125.88491        121.17805        144.99230
126.16765        123.44700        114.92603
125.88697        126.01318        116.14215
126.43160        127.98523        89.29453
129.97823        124.72952        143.66292
127.83098        133.39840        93.10136
125.78937        133.99129        128.36566
130.03414        139.59830        179.04730
125.53113        143.39422        99.27547
126.18429        141.78270        130.51464
129.71096        141.78076        181.97813
126.20845        144.58808        172.51798
128.11941        148.67663        102.87650
131.21770        146.63189        128.12623
129.76664        154.12093        153.28571
126.34371        152.19206        161.84024
125.72147        153.59058        147.35314
126.07258        158.34157        181.78011
128.61662        162.72574        180.42888
127.94604        108.06840        105.07120
131.23106        117.56521        123.02674
125.54160        116.17717        88.60128
130.04618        117.19083        112.63052
130.32245        117.77879        116.77182
127.74019        118.29903        79.43114
129.06472        119.95881        112.90436
129.58968        117.97868        119.57136
127.85706        123.48110        91.60027
129.71676        122.68219        94.69461
128.39804        123.98981        110.38825
130.90712        125.59733        149.46802
128.20267        128.42004        78.00959
127.64485        128.51664        93.97404
127.36040        130.90416        89.61933
127.07554        130.87936        117.15354
129.01053        131.05460        97.08826
128.16400        131.21112        129.92593
127.68904        131.03330        165.29849
128.31720        135.05869        133.40744
128.96194        138.28858        174.21531
131.78331        135.16544        129.27296
132.41517        136.85122        100.45187
128.68437        137.57463        145.37870
128.37418        139.71506        121.61736
127.92016        139.61637        155.87706
131.03988        142.00988        185.97178
127.98136        144.75296        92.78898
129.30749        145.23500        158.91093
127.82587        144.79830        99.95497
131.43138        145.49664        191.38213
127.95737        147.65717        97.80103
128.52421        147.12286        137.98200
128.47640        146.18568        167.81179
134.60214        144.71738        123.68375
128.09268        149.94911        144.01182
130.53512        155.02934        143.57026
127.92680        154.50349        163.62686
130.62711        155.49619        148.93408
127.83890        158.86590        170.11244
132.17212        162.40135        166.73721
129.52994        161.16908        186.32353
130.56460        164.12966        174.35627
129.02640        163.53879        184.46822
131.06746        106.07401        95.79567
131.13135        107.37644        106.90974
134.25346        117.87004        127.04083
128.94642        119.08901        93.92887
131.11551        120.76985        148.08015
130.81079        123.11020        113.21825
130.09990        122.17348        133.55333
132.68595        126.14124        157.03765
130.75782        124.21988        126.02705
130.31303        125.40219        161.42616
136.01942        127.71969        120.63698
130.01932        125.66644        121.71588
131.19187        126.99871        78.66503
132.10172        130.99601        166.99238
130.13377        131.63060        169.84160
131.71128        136.49801        122.40607
132.22699        135.50163        139.17253
133.14541        134.91084        142.70961
131.03112        136.14334        145.16691
130.64177        136.38298        135.45304
133.34822        138.55614        109.18534
130.08377        139.57578        131.63460
130.46094        143.23920        107.43922
129.67539        146.27762        131.12682
131.31860        146.21713        152.09799
133.78453        145.61795        91.17816
136.70098        148.93755        102.94228
128.82674        145.36097        139.78116
131.01116        144.03715        197.69939
130.16743        150.15115        97.33094
131.55031        150.20498        145.19988
130.90430        151.37940        128.12762
131.81943        154.88440        137.69263
129.79491        158.36168        165.87257
131.74117        158.17455        184.53323
130.75496        161.29356        160.65753
139.10313        115.37130        105.29353
132.24724        117.47797        86.41479
131.08762        119.05389        98.74054
135.59843        120.02285        130.79952
131.25388        121.34715        137.39070
131.68953        121.39785        99.73071
132.42753        121.59565        103.15492
134.85772        122.46162        87.22547
131.61864        123.82056        91.32740
132.59158        123.86628        100.06345
132.93837        123.83899        103.19604
132.35108        126.86598        163.58622
135.48580        128.03435        165.57928
133.94917        128.25713        169.94797
134.90256        131.15690        174.81518
131.58560        130.24371        91.59419
132.36158        130.45563        121.74516
131.20244        130.05488        139.98378
133.81719        131.58686        88.82869
132.30768        134.77221        134.38168
133.91809        134.51117        147.36282
130.85854        133.50688        91.95472
132.57946        135.45255        125.92756
131.45364        135.23286        178.33782
136.68100        140.61098        95.88413
134.60029        140.62156        197.88137
131.92474        144.54213        126.04390
131.70089        147.86744        106.30603
131.06681        148.56400        133.22912
134.17149        144.35074        188.85186
133.59557        149.30612        88.96555
133.36337        155.16876        132.36921
137.30400        153.41065        93.77606
135.45636        157.97015        177.82888
133.34937        161.69510        161.52196
135.27561        161.79559        159.25964
138.10648        109.94350        93.69503
133.18184        116.95243        109.96143
135.01214        117.83139        133.18608
137.42272        120.92669        135.91920
133.38976        123.87131        96.93509
133.25014        125.68838        98.15770
133.82190        125.80826        102.17591
134.76788        127.81291        78.23728
133.36983        127.95153        90.44780
133.32828        126.94002        100.44333
132.55488        126.91145        135.18190
133.87457        130.52781        91.33281
132.00491        130.49140        98.71466
134.00571        131.79725        86.33046
135.10157        131.43602        179.61125
137.32811        135.37350        189.64299
133.85194        133.73402        84.46263
133.53151        136.04107        102.94960
133.88494        134.02072        119.21016
140.21048        140.58939        84.48083
134.59968        134.18835        170.34362
133.72990        139.85596        122.11533
133.35943        145.42032        109.62023
135.73300        147.55127        90.97303
135.07100        149.79002        136.09086
133.27871        149.34212        126.52532
132.28858        152.08511        153.59590
135.89557        154.27809        127.98310
137.01886        154.48279        131.75902
136.97745        159.85358        152.75887
139.97107        156.75359        144.20408
133.41158        163.23875        177.27137
137.25755        113.97949        98.35738
138.86831        113.10425        117.44684
135.70374        121.51976        97.57532
137.70657        122.06436        140.19936
141.56808        125.16103        146.70285
135.75795        126.59096        103.76178
138.30459        132.59413        92.65465
135.28576        133.87606        124.21691
136.91000        141.85929        103.90509
137.04447        141.64310        107.42745
135.17731        142.24722        149.65471
136.31894        141.71906        193.51109
137.10525        144.08139        99.75320
135.57318        143.82687        109.59174
135.84518        145.74707        105.31134
135.95486        145.05738        158.53382
139.23466        145.83303        165.50369
139.46119        148.82262        174.21874
135.89561        145.44916        179.34751
135.85399        150.14506        122.11242
138.79947        150.30019        179.80345
139.20304        150.80042        184.42268
140.00067        153.17043        120.18437
138.32259        152.13554        126.17143
134.43344        151.91928        135.65673
136.03139        154.28471        149.77317
135.38114        154.96635        141.94758
138.15018        157.01830        148.17376
139.52290        158.36387        168.26445
139.02863        105.89183        119.08390
137.80305        119.24914        123.91037
137.89389        121.74896        96.76809
140.89944        122.45929        115.30127
138.87182        124.76550        105.30902
138.43194        124.85113        107.79477
139.52100        124.36876        111.46059
142.53261        126.93095        131.93814
139.30735        126.20869        137.08308
139.64533        127.80383        127.98967
139.90771        129.41592        133.22041
140.93722        131.63152        161.49712
137.69257        133.92221        95.85831
140.68249        132.52565        158.43150
141.12681        141.10044        117.95381
140.20805        142.08818        160.13456
141.75958        138.67325        175.89654
142.44503        139.71632        130.33629
139.98247        139.59652        149.98238
139.12449        141.75695        172.21786
138.95606        143.96549        109.98382
137.85358        143.82197        119.86078
142.64228        145.97127        96.50560
143.59922        142.34839        136.69443
139.89497        146.06077        170.51886
141.41280        147.86421        113.65799
141.23254        152.44356        138.34254
140.48271        152.14806        139.64826
138.89711        151.77065        168.15542
138.22545        151.92334        172.16217
138.23752        154.27870        163.29452
137.62679        157.24494        99.75367
142.36733        156.29402        103.00711
137.54029        159.76646        159.18508
143.96817        104.68707        110.45689
144.21249        107.24895        102.61235
140.00258        106.25140        116.59825
139.47399        108.13141        95.50316
140.24667        107.81037        109.39594
139.72061        110.14880        109.75181
144.94246        116.70082        91.07833
143.22067        123.12951        94.96252
139.55776        119.62270        109.85806
140.01443        122.12449        97.82816
140.24805        127.78687        112.00341
141.07364        129.50466        155.13914
140.50236        129.97481        111.46696
139.72315        131.21581        121.64456
140.36218        133.20060        120.00788
141.68382        135.20511        167.18845
141.66987        134.99915        162.60809
141.49990        139.22526        111.98470
142.17029        136.68118        125.50326
140.22763        138.25488        161.01658
140.32253        139.05428        107.90087
145.10584        139.48104        149.66266
143.11410        144.68637        188.09248
138.40962        142.14038        88.27372
142.93737        139.77091        182.09663
142.35804        146.97976        129.13469
140.07764        145.78207        181.73044
144.68783        145.20636        142.88425
144.29728        148.61733        146.65060
139.68726        149.57720        93.42686
146.01755        150.03045        157.96274
139.52211        154.50706        94.55104
139.63054        155.11658        127.78533
140.22309        153.66215        175.60938
139.56625        156.67843        178.91309
144.00176        104.54188        114.42822
139.63410        107.81269        119.48280
142.53566        109.38552        116.65563
141.91610        112.27370        114.52345
145.00211        115.44668        113.98812
142.43542        120.89951        80.01769
141.85677        116.97144        116.94217
149.83586        120.70604        82.32604
146.26496        126.32570        112.50334
141.97415        130.31557        124.94154
143.38385        134.08532        101.66364
143.50230        136.36765        129.35280
140.80530        139.84045        123.36105
141.74013        139.52936        191.35629
143.55712        139.43849        155.35412
140.61691        142.52239        167.97298
141.89148        144.88946        101.96682
142.05126        144.26894        110.91059
140.89521        144.44732        175.68725
142.23430        147.78999        106.40520
141.76551        148.04169        122.64858
145.75543        150.56228        130.39165
145.42579        150.27431        96.30953
140.73968        150.03630        121.45420
142.54219        149.67729        128.18417
142.47902        149.74382        142.33659
141.90684        152.18693        141.82367
143.72023        154.51447        135.53730
141.77210        154.75677        94.69030
144.40244        159.79442        153.94009
139.48882        156.29132        175.22068
142.00853        158.41194        151.71205
143.64193        158.87843        158.89960
144.34471        119.94565        98.16023
144.14386        119.08989        114.27032
145.20669        122.51266        103.07058
144.69347        123.04871        116.78133
144.42820        124.55354        97.89722
147.35537        128.51980        139.21633
144.19007        127.65738        145.22647
146.66061        128.63222        88.16185
147.19133        131.43405        83.29924
144.17717        133.39371        125.25519
150.24799        140.70096        94.59189
143.97784        133.66321        121.18937
149.44179        137.75748        142.79148
142.78755        136.21886        182.86602
144.17868        139.62524        114.06235
147.04916        141.35350        109.32734
144.22564        144.78420        131.66023
144.04877        144.79461        147.04488
144.16174        144.13533        152.48726
143.86102        147.11501        99.88658
144.32264        147.66840        107.63721
143.95126        150.16211        114.32004
145.46683        149.22239        154.01911
144.82636        148.95419        176.24414
146.00082        151.48270        114.36965
144.19452        149.40663        151.76968
145.78029        150.74182        161.57301
144.88879        151.17172        172.31728
144.75162        149.12886        187.11602
143.93683        151.94582        91.92602
143.80889        151.62141        102.79651
146.43869        149.71966        109.28644
143.84770        151.69856        141.73375
143.97488        154.02570        94.80811
144.39361        158.39045        142.58139
147.41842        159.68995        144.35100
147.34917        160.78866        149.33506
145.10640        109.25545        96.28792
152.10919        113.42022        104.00578
145.61621        114.02699        101.79602
145.63225        117.67686        86.17103
145.42613        124.23681        85.62416
148.39961        125.45477        102.59616
149.99899        131.55238        120.79152
145.89404        131.16364        141.64801
145.44248        133.24892        141.03285
148.29182        136.06159        81.48135
145.55716        137.79829        99.60631
145.54995        135.69617        124.55691
145.58707        141.68607        145.52718
145.56779        146.05873        103.41336
148.78404        144.67471        108.54850
148.78266        146.36427        124.37840
151.01195        144.35337        175.84862
148.08158        151.56220        164.65391
147.22276        151.75933        167.94820
145.90866        151.80162        170.26539
145.61092        152.61956        93.10964
147.81672        152.76247        178.13154
147.14074        105.97039        102.61170
149.47717        110.48963        108.00285
153.44134        114.88277        112.10116
147.82503        121.89790        95.83307
147.82574        122.19477        97.98486
150.43728        124.73443        107.28902
149.83435        120.71106        115.03468
151.02955        130.59268        149.29844
147.31058        126.08425        91.31153
147.55298        125.53479        93.23899
147.71906        125.82430        100.25405
147.53516        128.49742        119.97748
147.62889        130.06514        99.07823
150.09348        132.74285        91.65373
152.91006        139.37798        132.21793
146.28415        135.73462        98.12947
147.22189        136.17941        130.03532
147.29057        141.03490        112.13657
147.91582        139.67600        137.83501
148.68739        141.95508        98.77591
147.83078        142.24417        116.01641
147.86359        140.89286        132.71273
147.54648        142.09502        142.22769
146.05741        142.66354        189.56171
152.63250        142.98793        117.27988
147.73636        147.28757        105.67406
149.04342        151.56361        169.91849
149.06988        152.67087        174.26534
147.25565        153.96831        137.32566
147.64219        156.00048        143.84822
147.42070        156.88260        136.17396
147.10349        156.21924        157.88852
150.95364        158.77312        140.20616
149.35825        106.02092        103.15189
150.63034        115.94244        100.37064
149.51828        116.46734        114.96365
150.57204        122.12337        96.27557
149.31115        126.12783        86.06286
149.99348        128.18074        99.17012
149.88075        130.26294        79.10966
149.58556        131.26616        88.78621
149.22800        133.11162        97.62082
153.32586        134.10354        115.76665
149.30439        135.40126        130.52445
150.11420        133.83453        141.95769
152.47126        135.51625        160.68271
150.84243        135.75165        90.14866
150.39116        136.44932        117.03809
149.99310        137.68376        128.43005
149.89430        139.71269        117.43203
154.47826        143.68607        89.50404
152.24899        144.27365        121.74353
149.99932        140.72034        147.33696
151.74197        145.17487        98.43505
149.66229        145.52941        170.07783
153.28709        147.83585        87.91205
150.78958        148.98171        94.80123
149.62012        147.50740        102.71050
150.78006        148.29590        121.25118
149.47427        149.36405        107.66394
151.84718        122.11178        93.92758
151.86653        123.02340        97.79357
153.41212        125.42106        102.97448
155.41073        126.15040        76.66025
154.33947        125.95656        106.23522
153.08005        126.79949        82.33179
153.16363        128.74394        93.96225
153.05913        127.84051        100.25474
151.46756        127.84741        112.43358
154.59624        130.78409        99.27662
151.71376        130.95526        116.82408
151.89435        131.61960        86.38401
154.09281        132.15019        89.40050
151.66902        131.59348        93.37451
151.86171        136.33508        82.17041
152.88851        138.72908        91.26214
151.73489        139.50113        168.08080
151.35987        143.02460        111.63094
151.86625        143.08782        114.50505
152.27214        147.42455        91.78793
156.31004        149.72407        138.11280
152.35415        150.06528        133.38949
152.23015        151.71756        135.11833
152.01551        153.80762        138.25274
155.80412        148.66813        103.20938
151.82065        163.38994        142.89532
153.62733        125.35263        100.06824
152.82924        124.13878        92.00938
153.73502        126.16057        91.21863
153.79959        128.18236        89.67373
151.76640        128.67938        114.54753
156.54494        131.65091        82.13850
157.41887        131.09416        86.51397
153.91941        134.77743        108.01741
153.73801        134.87668        110.28815
154.80802        137.05749        81.92977
154.35769        135.90823        83.92500
155.32880        135.77501        87.85095
152.93537        135.53840        119.58195
157.81306        138.79692        105.97889
154.20812        137.93623        115.52729
153.12419        138.39551        165.70663
155.02987        140.99276        85.87146
153.73087        140.05647        97.62804
153.74097        142.56309        97.97509
153.63236        141.71889        135.49022
154.08760        144.10564        137.76299
159.07921        143.58722        141.54093
154.36395        149.10119        100.24180
151.62427        150.14965        174.60681
155.55195        125.28161        97.22951
157.97809        126.82002        88.61812
156.07500        131.23413        78.01898
157.71599        136.57477        101.62746
154.95971        137.70650        86.61175
153.81370        140.00160        88.35635
157.30889        140.84482        102.08870
155.84882        141.86896        119.16200
155.24870        142.47892        133.32037
162.16436        140.79135        89.37736
155.73172        144.74955        107.40231
157.52783        144.73540        135.15514
154.86235        145.72847        105.55150
157.76168        151.41255        104.80375
156.76166        153.66086        140.32240
162.31182        156.02563        101.10113
156.97922        119.59607        79.49550
155.82456        119.98139        81.89919
158.98149        121.21261        105.71811
158.58101        125.91651        92.00403
158.21676        128.61639        79.90218
160.01844        130.02383        82.75384
157.88490        128.37387        100.06301
158.31575        131.31463        79.52985
159.54349        133.79442        82.36450
157.02463        133.56514        98.68293
159.41302        141.04637        117.60474
158.09557        140.02404        123.85861
158.97819        141.79597        86.17678
158.84372        149.13903        107.61385
158.82827        152.43144        95.05835
161.47368        124.50603        94.89548
160.71801        125.51750        86.14303
161.67309        124.54285        109.83513
161.50760        125.66735        103.03064
159.71385        125.69807        105.18730
159.21918        128.11297        86.15128
163.68613        127.93583        104.61423
160.33090        138.30197        144.67806
162.03480        141.35378        91.41458
159.64898        141.10931        110.10138
160.29766        141.85451        113.05611
159.29416        140.72054        121.43227
161.43860        144.57792        113.85302
159.37386        145.78268        109.58157
161.63407        145.73794        92.06279
161.26299        150.18502        93.26226
159.40674        152.02559        100.24057
163.66368        123.56573        81.65512
161.99461        125.64694        89.66987
162.82615        122.79732        105.96169
164.23705        128.00826        73.87739
161.86182        125.72778        98.03577
163.40542        128.68668        78.32561
161.01751        127.92738        84.59225
166.41477        134.21009        67.73725
167.30955        134.82270        97.61614
161.93316        136.31604        97.57757
161.55986        136.26393        106.97099
164.64924        136.31921        79.73379
161.55086        138.10057        150.40899
163.21313        142.07164        93.63644
161.52998        142.91441        107.11231
165.14142        145.53360        97.17926
163.78637        147.61580        112.93515
162.20822        150.64478        105.79132
161.32805        151.87413        99.62533
161.47872        153.86500        96.41216
165.75132        122.00052        83.51170
163.18651        130.25677        84.56242
166.33310        131.09762        95.93395
166.12607        134.65135        87.10014
164.49379        135.47237        105.35031
164.01384        137.74284        102.07899
167.84153        139.03308        100.45208
166.62183        139.99946        76.75105
166.27334        145.20460        102.97968
161.38024        144.00631        109.85903
165.94058        122.88543        77.67882
166.93530        124.91447        104.33635
166.41409        127.57138        99.47906
165.65978        130.29762        104.31541
166.23530        133.29244        102.24418
165.79250        133.61728        105.58096
165.97520        139.95268        69.80923
166.74262        141.07358        94.38540
167.76146        143.11729        71.84749
166.10932        145.21828        105.91466
167.71418        148.36271        105.87892
167.00984        151.87018        109.18330
167.66825        119.77069        83.15145
167.68480        121.28267        79.74863
167.68305        126.10038        77.43863
168.25763        128.33037        81.70288
170.90854        127.42147        83.91449
168.82544        130.77172        86.78127
167.73932        131.86102        75.48533
167.70233        135.17079        83.58348
168.43281        132.13253        104.30175
167.86338        133.37190        74.16329
169.47765        133.39025        76.71509
167.80069        133.60980        79.59348
167.89964        134.20832        70.28784
166.98120        148.66768        98.86778
169.92526        119.92352        64.77870
170.02305        120.84150        79.94399
170.16131        122.30293        67.00574
171.32097        122.40754        70.10858
172.96045        124.04129        74.70219
170.16522        125.71442        65.86304
172.31284        129.14961        73.46091
171.03511        130.01993        80.22690
170.11702        131.87396        71.89219
169.73444        131.42876        83.67061
168.66311        133.32287        72.05107
169.12858        135.64886        102.03632
170.72286        141.88389        67.95796
171.94968        143.34271        71.44972
171.85880        117.65338        62.56272
172.25628        122.21094        68.06650
172.62496        123.21606        80.43806
171.14864        128.20054        81.77144
172.35236        134.44326        65.92559
176.32353        128.17467        68.25957
172.92495        139.75758        68.44834
172.74317        137.55830        81.93930
168.57483        140.21194        98.23982
167.67615        144.55868        100.10688
173.55079        118.32070        77.84554
175.17897        121.98159        63.77913
175.53246        122.72418        68.58406
173.14115        126.09283        69.86293
173.82940        129.11273        65.32899
175.94080        132.00473        63.55678
177.12348        143.70860        81.16219
175.81166        117.55699        77.65043
179.31459        119.38589        79.78204
175.32582        124.05911        81.38834
175.46999        130.02624        73.06982
177.58105        130.46035        80.17758
178.04493        136.20555        72.46501
176.13109        136.01180        81.52800
175.77593        138.78460        67.57208
176.50756        139.72229        72.09967
176.63182        142.70943        77.26847
178.96259        123.35506        64.61111
179.54492        130.84449        75.49984
177.66534        133.55999        80.43410
178.11669        137.12218        67.89741
178.36107        136.45796        75.17975
177.55165        139.86717        77.11509
176.53678        139.85172        81.67443
180.11868        129.92062        64.05429
180.04861        134.12088        77.34617
179.56247        135.81290        70.30844
177.58077        137.85636        70.27426
182.39120        116.91847        68.79163
181.65277        118.57197        76.97327
181.58931        119.33572        67.70395
181.43358        123.73724        78.45996
182.37964        127.45005        63.77943
180.86690        126.08452        80.20763
179.62036        127.90593        80.56179
181.87666        133.62877        73.12682
184.96582        116.18887        69.60692
186.91461        119.29410        74.76222
184.95244        124.87577        77.33379
182.68160        128.40692        77.45299
185.08412        130.47366        74.69776
186.07713        126.16056        75.30317
187.15200        121.16078        65.36859
187.36987        127.37757        74.02945
189.14751        124.13973        75.38374
191.66378        119.31629        71.95302
191.37935        121.55358        68.17018
