74.72722        132.40171        130.15030
78.74170        135.36365        133.25482
76.67661        134.24719        136.65251
78.06324        131.60006        137.54026
77.05228        136.29138        133.70065
76.89708        136.34110        137.25220
77.01857        139.49297        143.39012
76.65560        143.94295        132.92808
81.44139        126.43350        136.09408
81.65257        130.04148        141.89491
81.69295        135.84642        135.23694
88.74711        141.95402        126.22039
83.80772        143.03489        135.47339
82.76162        141.66950        139.31613
87.16355        128.51449        139.94357
84.94396        130.59434        142.45833
87.35360        133.79336        144.64839
86.97917        139.42511        122.91477
89.10001        139.30358        136.83210
90.60582        142.37916        143.52810
87.39458        122.49539        149.99273
90.17862        133.17130        127.32041
90.10015        140.30779        128.67186
87.02408        146.27485        136.26317
91.54403        119.68806        144.59042
101.45859        119.19288        152.23108
90.66293        122.47167        138.03092
91.17031        126.06622        153.60625
90.55842        129.04018        133.42088
95.32816        133.19376        151.94303
89.01731        137.99788        131.02014
89.91296        144.12410        136.93032
90.96316        145.92451        121.41540
91.24290        127.32873        144.95664
93.34536        127.46875        150.28554
92.70794        128.98525        156.41967
96.13460        137.78349        141.69497
90.49772        135.96408        147.42602
93.22687        136.58967        155.57002
91.58639        137.92417        146.38692
90.69096        145.72261        130.76827
96.00135        148.79560        137.37209
92.46441        152.82382        143.25247
91.70642        130.43368        129.28712
92.60462        134.67463        130.35432
94.53945        135.82797        125.30301
92.98958        144.49053        121.09282
97.39200        149.07160        125.96016
94.07697        152.97037        139.49126
100.24574        129.41106        138.62044
95.62569        130.25629        135.05371
95.73820        136.11728        130.69126
96.99602        140.86260        151.31051
95.42947        142.11136        130.93655
100.05890        143.22377        114.82223
95.68610        147.20337        147.31742
95.04794        151.62131        141.10370
97.12867        117.88132        147.43859
97.05880        123.91752        149.67590
97.42846        126.75229        153.23367
97.25023        132.80309        135.83112
101.87430        139.96679        132.57258
97.52182        138.07571        147.75907
101.32030        143.32945        122.13661
98.97944        149.07214        143.12780
100.57909        111.72152        149.53177
99.60306        119.93055        140.84086
100.40941        121.81813        139.14865
99.58731        127.41347        155.48685
98.99111        142.33848        126.84932
99.28403        146.27897        123.51579
101.09138        151.22584        148.93395
99.06256        156.45960        133.22159
99.05678        153.25032        136.38568
104.54090        119.71067        142.26808
101.15720        118.91763        147.89563
100.95702        126.27772        149.76447
100.91734        128.70320        141.00869
101.50183        129.93584        149.81157
99.87049        136.06553        147.81310
101.00611        140.14366        127.65655
101.14169        139.41092        151.54636
102.43739        140.54902        144.75007
101.41988        143.93314        137.15456
100.89557        143.97929        143.51669
109.02297        145.93024        116.62554
101.12839        146.07035        121.81557
104.26271        151.62139        138.24303
104.44606        147.87206        148.83463
100.90893        151.94764        120.62361
101.26543        155.06202        134.74679
104.55090        111.39289        118.40592
105.19848        119.94009        158.66164
107.15124        130.07305        148.82782
104.96833        138.95818        124.06558
102.54849        138.67121        127.17588
103.14247        138.94446        152.99917
102.97881        140.55155        139.20613
105.70198        139.39678        150.98374
102.87182        142.59119        127.00588
104.09121        144.16042        129.34657
103.89852        143.02604        131.34944
102.90683        147.90797        121.94593
106.78404        145.76532        126.73891
103.01282        151.71871        143.38748
102.65603        152.81099        130.52751
111.53165        108.77921        114.75723
105.05439        122.15995        137.60949
106.42447        124.21170        135.66498
106.81266        126.72740        159.34424
106.75096        140.52336        143.40557
104.44888        144.59795        125.21068
106.85694        112.65650        145.32469
122.98434        120.88793        117.51510
106.40057        115.93313        140.91267
106.46226        117.98369        137.74138
106.70822        125.20400        130.77365
106.37692        124.05162        151.83231
106.67177        127.17742        153.48954
108.36735        129.72376        156.77713
106.86180        144.32161        117.18340
112.38627        145.93784        140.55213
109.04179        152.16241        131.10662
111.42783        109.05479        149.02600
110.07176        109.94477        127.59395
109.44568        112.19886        148.46526
109.65410        114.28101        150.46808
110.58508        116.46234        151.87126
109.82400        117.94973        153.24121
111.75423        123.09163        157.48815
113.20724        123.39127        137.76602
115.32264        119.93414        145.87714
109.53974        123.49479        130.97584
110.04795        126.35714        142.09936
109.15848        128.55245        151.71977
109.24621        138.02225        133.54547
109.40544        142.57076        133.98014
109.76263        145.78105        139.63169
110.77497        148.36010        145.76534
110.62972        150.31168        149.07992
112.39068        114.96326        137.78692
114.10216        114.03079        149.76562
111.43820        113.78164        109.95589
114.46375        118.48925        135.12130
111.72960        121.68254        131.79438
111.22906        126.70160        145.13149
111.01820        126.49850        151.13735
129.68308        133.78520        130.49979
112.05650        137.80646        119.76014
112.39779        147.17755        133.86921
111.24752        147.79326        131.06714
111.26445        157.05774        138.04863
126.98505        117.67505        109.37108
113.61510        112.31361        114.73203
114.37579        115.74403        114.42890
113.63366        117.08886        111.18458
112.80991        123.72524        153.78603
117.83515        127.30084        150.70710
113.51680        126.30925        153.67055
113.45945        136.39175        121.71887
117.05249        146.98291        129.32654
114.06171        152.82261        151.61385
116.94776        154.12554        139.98102
115.80370        114.25146        144.27804
115.39712        120.40319        119.85606
115.04716        121.03368        143.24084
115.14078        121.79745        153.12901
115.55588        141.41283        145.84855
115.20154        145.92814        123.49532
114.14306        146.51624        121.35959
115.47301        148.09438        135.59195
115.34357        151.78047        135.82819
116.49624        108.89856        148.65169
117.20782        112.64852        106.98427
119.32995        117.03024        107.43356
118.07691        123.86141        151.60632
117.13374        126.57579        151.27733
116.76971        142.40722        126.17880
116.88408        147.08635        137.40390
116.84301        152.23253        139.53705
119.43771        121.64364        124.35207
119.37429        149.53170        141.41256
118.55600        151.96529        141.04713
122.85885        120.00896        112.86707
120.91045        131.19526        118.09811
120.80259        132.01217        125.19155
121.58030        140.38486        127.53289
121.32577        145.10806        125.46723
124.14295        123.97041        126.85331
125.29019        127.11450        111.55659
122.35124        129.98090        119.73654
124.34007        135.43679        101.57260
131.54046        138.05642        121.67045
122.49290        143.14460        130.63280
121.94099        156.66755        135.24086
125.65705        121.89544        119.36274
125.27013        126.36122        120.07043
137.85822        128.40425        124.66060
126.46132        132.31238        133.86658
127.39044        131.40327        96.75627
125.24721        142.02718        126.91088
127.09342        113.46059        105.24928
126.92466        120.16980        113.10047
128.77843        131.59468        120.39139
126.03515        140.20432        129.20951
129.78868        119.91717        103.60302
128.94994        124.21189        111.55900
129.01402        125.39349        107.42685
130.83413        121.30317        112.10828
130.71353        124.06190        119.32953
130.93834        132.67193        115.53227
131.02903        132.50056        119.79209
130.59876        131.90177        127.18937
130.65051        134.80951        128.22468
130.66728        137.37917        129.42904
133.10130        123.39604        109.07762
133.16144        126.04484        120.17752
134.01594        129.48142        116.89661
132.96162        129.92102        129.12426
134.72466        135.61966        111.01595
135.34864        142.42667        123.75901
136.59009        121.98832        112.47596
134.78009        128.10874        119.80091
135.35886        127.70971        129.71023
134.75871        130.51471        131.02089
136.80968        133.62417        117.30653
138.36876        139.23287        129.80186
139.11967        126.69004        103.33419
144.88921        123.98397        106.46723
136.48138        130.01534        129.17880
142.84084        141.98625        124.84837
141.14541        144.09693        115.59535
140.40919        122.98859        101.18609
139.20975        126.28460        109.53949
139.46989        126.87233        111.44673
152.27978        136.12098        103.15374
144.92210        131.81172        114.57319
139.11309        128.62863        129.34901
139.35149        132.05377        121.37097
140.65962        145.88235        126.90626
143.16837        128.11762        128.85623
143.53067        129.46889        103.35464
141.07663        130.10711        111.19401
141.05914        135.57793        135.32996
147.84113        141.29027        133.79751
144.41378        138.97515        107.85152
147.01897        128.28179        119.80511
145.33047        130.45517        119.56659
144.86581        146.09642        115.16202
146.02693        147.91181        113.67254
147.00489        128.40987        128.74130
147.66168        131.90776        121.31630
150.07969        124.15024        131.87433
151.15088        125.51406        138.87628
148.52265        128.10750        101.22322
148.47894        132.42689        105.29478
148.48444        133.60547        133.74954
150.34350        128.42286        129.42591
150.98099        130.26835        109.37613
174.98156        125.05655        129.40058
150.70225        138.08024        134.28263
150.56047        140.27022        133.84604
159.86455        127.26558        102.04358
155.01611        124.13803        110.02158
159.40438        129.28751        112.22008
155.21590        127.29078        133.54885
153.03125        128.28597        107.41612
153.02338        129.21723        116.55452
154.59379        130.32251        120.08146
159.87532        135.25517        119.88506
156.67680        122.04416        137.80032
161.85210        122.99668        135.01252
157.17767        126.51694        107.30469
157.83028        129.47397        107.66908
157.35921        130.27231        130.47188
157.14290        132.39320        105.57402
156.76908        132.17712        126.95598
156.92419        134.47955        104.38936
159.16660        126.13713        109.58910
160.39964        129.99740        135.01452
158.88800        131.75924        100.53009
158.79944        133.03579        108.04887
160.79546        126.18535        134.33276
159.50435        132.66803        109.93654
162.82620        118.46658        136.55892
162.31876        131.77363        114.89196
162.57056        134.20426        113.50481
166.41220        121.66958        130.65174
164.28044        134.42673        100.20367
180.13029        116.64973        137.13995
172.16700        131.63157        97.13865
177.62739        132.19672        106.05450
172.24685        140.23545        107.45253
167.63391        135.72268        110.72328
169.60706        118.61021        130.25855
168.80861        131.81727        112.75298
169.46142        135.86548        105.45126
170.11665        123.49931        107.35108
171.28385        128.82124        112.87051
170.70115        136.01157        99.05344
171.06171        136.18091        109.40531
171.86980        133.63471        100.85775
173.95107        134.84401        106.33712
175.23624        137.46794        114.59747
178.05104        120.82518        132.18799
177.97083        131.81227        101.49464
178.24220        139.73913        96.74487
176.43408        141.44673        99.34497
183.37025        134.99015        94.35395
181.53090        138.07971        97.13935
181.42535        140.44596        90.94039
183.83870        124.14483        129.71018
183.25769        133.54114        99.14924
183.22962        137.93670        92.06762
185.27637        116.93170        141.98809
188.37198        117.14799        133.76592
192.67352        109.62998        138.58520
194.10287        109.99977        132.98288
196.18222        112.26935        137.03856
197.12643        116.16767        136.46866
197.52498        118.35204        137.12030
199.67231        118.77051        133.58197
