ply
format ascii 1.0
comment Created by Open3D
element vertex 2021
property float x
property float y
property float z
end_header
144.801 129.482 181.937
145.037 130.122 183.205
145.344 131.142 137.26
145.607 131.309 161.445
145.287 132.121 158.653
145.696 131.558 160.061
144.772 131.743 163.103
145.909 140.02 140.239
146.363 142.14 144.479
145.435 141.479 167.884
146.131 142.522 146.01
144.338 145.202 142.881
146.305 143.98 194.692
146.076 146.38 147.936
145.496 146.778 149.269
146.34 146.289 150.684
144.417 147.602 197.11
145.658 150.82 114.176
145.328 150.884 112.114
144.58 150.449 174.147
144.539 150.873 194.407
144.464 152.28 110.379
144.575 153.322 166.248
145.123 152.34 194.106
144.514 152.325 195.422
145.861 156.062 104.547
144.571 153.794 110.177
145.086 155.106 110.24
145.025 156.073 198.12
146.753 159.158 108.981
144.946 160.715 192.673
145.398 161.359 198.846
144.551 164.841 108.104
145.626 164.635 153.29
145.55 164.88 164.283
145.327 164.27 170.681
145.781 163.634 176.966
145.982 164.125 182.516
145.756 163.198 187.496
144.411 163.164 198.34
146.698 165.34 167.132
144.646 166.247 174.915
145.324 164.948 180.275
145.453 164.377 187.738
144.241 164.682 198.277
144.848 167.202 203.606
145.078 165.975 168.112
145.176 166.155 179.959
144.757 168.577 118.123
145.367 167.353 179.534
144.446 167.632 181.288
144.8 169.162 202.693
144.411 170.993 200.577
144.644 170.677 201.871
146.001 173.636 140.467
144.776 173.419 145.952
144.505 174.042 142.804
144.687 173.762 144.618
145.758 175.187 158.504
145.355 177.95 109.792
144.616 177.486 186.399
144.382 181.25 174.688
144.264 184.197 117.779
144.37 182.541 145.295
144.41 182.14 169.153
144.384 183.733 155.631
144.599 184.426 157.967
144.705 183.362 170.876
145.665 182.696 171.801
144.574 182.795 173.704
144.232 185.461 179.397
145.651 187.445 115.961
144.575 187.83 148.315
144.454 186.348 180.33
145.384 187.348 182.13
144.552 188.101 146.369
144.332 189.567 146.197
144.626 190.735 156.514
144.699 190.664 162.49
144.458 189.957 184.432
144.73 190.661 190.743
144.199 192.725 111.05
145.326 193.341 149.001
144.936 192.695 158.052
144.553 193.342 159.936
144.678 192.571 161.48
144.777 194.104 150.63
144.933 196.137 145.878
144.199 195.738 163.094
145.244 195.841 194.982
144.86 197.915 146.306
146.178 199.673 148.925
144.136 198.532 193.455
144.129 200.116 124.345
145.524 200.944 143.483
145.737 200.039 144.472
144.615 202.265 177.231
144.822 203.437 119.885
145.596 203.536 144.012
144.276 203.364 178.933
146.401 205.658 142.636
146.119 95.6016 165.55
146.279 97.6475 149.953
145.809 97.8594 164.77
146.392 99.0694 149.497
146.144 99.5174 158.359
145.615 99.2505 175.182
148.332 101.842 150.018
146.127 102.949 143.008
146.21 104.248 142.99
146.098 104.906 164.633
146.257 105.766 142.913
146.237 107.122 142.876
147.362 108.937 190.163
146.156 108.411 143.009
149.686 110.174 180.945
146.503 110.584 186.823
147.355 110.794 188.068
146.839 111.456 189.469
146.257 111.701 190.956
145.903 115.016 196.076
146.024 115.734 197.485
146.152 115.86 198.755
146.819 115.887 200.081
148.861 117.253 183.298
149.348 117.926 181.032
148.997 120.158 185.026
147.703 120.449 193.453
146.908 121.958 132.479
146.125 122.893 133.614
147.752 123.085 197.155
146.032 124.271 132.403
145.77 124.367 136.527
147.074 129.342 195.127
147.019 130.724 195.178
146.139 132.062 163.03
146.964 132.161 195.141
146.996 133.523 195.046
146.098 133.841 200.268
146.857 136.126 167.051
148.252 134.808 194.966
146.724 135.811 199.742
146.525 139.169 133.549
148.723 138.282 134.448
146.878 139.335 138.439
146.384 141.135 138.653
146.719 141.496 143.008
146.63 142.5 147.494
146.943 142.813 138.309
146.994 143.238 143.114
146.13 144.096 144.343
147.069 145.253 149.239
146.394 150.073 203.599
146.004 149.088 206.41
147.372 150.903 125.327
145.859 152.399 192.761
146.519 150.442 202.36
146.388 150.816 204.927
147.694 152.413 125.588
148.898 152.305 131.527
146.344 152.372 190.905
146.155 152.059 205.117
146.029 154.237 110.227
146.476 154.466 120.327
147.85 153.914 125.718
146.377 154.104 156.419
147.022 155.597 110.102
146.048 155.551 115.066
145.799 156.225 197.341
146.18 155.396 200.316
146.284 155.284 201.91
146.915 157.041 109.64
146.454 156.92 113.841
146.017 156.866 116.055
147.218 157.703 193.95
146.075 156.842 195.86
146.201 157.807 114.924
147.958 159.066 161.807
147.099 160.591 139.221
146.228 161.63 154.688
147.02 164.435 162.079
146.071 163.593 178.428
146.013 163.664 180.503
146.743 163.269 189.57
146.106 165.46 108.126
147.497 167.195 112.847
148.668 164.694 150.176
145.787 164.84 175.891
146.483 164.523 177.315
146.211 166.56 126.056
147.088 166.346 127.092
145.865 166.634 135.214
147.068 166.388 147.696
146.971 166.276 157.769
146.081 165.92 169.06
146.34 167.104 174.092
146.568 167.815 192.443
147.025 169.468 117.762
147.049 169.039 119.565
146.735 167.987 121.019
146.483 167.878 136.61
146.883 169.937 121.243
147.53 168.767 137.549
146.566 169.645 138.236
146.251 171.111 139.118
148.887 173.355 176.75
145.741 173.979 142.665
146.091 177.081 186.407
146.81 181.396 109.463
147.46 181.737 143.157
146.765 181.867 107.734
145.998 181.839 144.539
145.883 182.516 145.853
146.132 184.129 159.395
146.257 184.981 184.097
145.966 187.606 114.124
146.014 187.676 180.684
146.749 190.854 162.578
146.413 190.454 166.874
146.123 190.598 190.607
146.856 191.151 164.587
146.429 192.484 124.677
145.918 193.476 147.486
145.811 192.262 161.821
146.055 192.252 191.017
145.852 194.539 116.457
146.771 194.516 145.866
145.699 196.082 121.896
149.079 197.288 168.638
145.827 197.826 122.062
146.117 197.562 161.752
146.325 197.212 180.161
145.419 198.714 123.872
146.744 199.626 145.995
146.701 199.633 147.536
147.327 200.466 188.086
146.052 203.479 119.626
147.205 203.537 124.364
147.42 202.911 125.717
146.18 203.451 121.135
146.403 203.445 122.795
146.989 205.558 144.454
146.33 205.143 145.92
147.582 99.5797 149.851
149.33 104.781 148.588
147.632 104.139 164.845
147.635 105.948 142.3
147.83 107.775 142.36
149.381 108.872 178.781
148.638 109.89 183.291
148.28 108.951 188.212
148.465 110.266 184.992
148.323 110.95 186.605
147.766 114.134 142.962
148.997 114.583 148.721
147.951 113.405 150.379
147.496 115.13 196.276
147.554 115.792 198.144
149.94 117.082 171.519
148.374 116.852 184.648
148.823 119.416 186.317
149.725 118.999 175.168
149.717 120.9 189.883
148.646 120.855 191.177
147.851 120.927 127.369
148.162 121.334 130.58
147.667 122.314 198.899
147.976 121.713 200.376
149.068 121.849 201.284
147.723 122.548 130.756
147.392 122.618 133.4
148.308 122.709 195.964
147.419 124.258 135.193
147.869 124.688 188.299
147.582 126.335 138.719
148.725 129.663 158.139
149.125 128.7 160.033
149.306 131.463 127.242
147.527 130.507 159.849
148.501 131.375 198.42
147.323 132.042 160.192
147.426 132.347 161.604
148.869 133.504 190.754
147.828 131.862 197.268
149.682 132.719 139.376
149.715 135.522 129.707
147.552 135.403 197.21
147.782 135.959 201.007
148.535 139.989 137.137
147.408 139.517 132.427
147.558 141.2 138.339
147.206 141.579 197.354
147.441 144.595 147.76
147.474 145.609 172.297
147.748 145.978 151.872
148.911 145.993 166.131
147.838 146.383 206.914
148.093 148.646 124.115
148.323 150.527 142.944
147.63 150.677 204.248
147.323 150.712 112.002
148.652 152.829 127.239
148.789 151.93 139.955
148.542 150.468 141.583
148.581 151.068 144.479
148.449 151.582 145.85
147.304 152.329 191.48
147.839 150.616 202.247
147.652 150.712 206.055
148.943 153.568 120.649
148.73 152.868 128.987
148.605 152.992 133.525
148.442 152.043 141.233
147.877 152.84 155.58
147.24 155.241 105.171
147.742 153.822 115.881
148.526 154.071 118.173
148.584 154.501 123.537
147.745 154.577 156.205
147.578 154.788 200.607
148.385 155.279 119.597
148.51 157.367 111.931
148.376 157.296 113.496
147.619 156.973 114.806
148.424 156.866 118.831
148.854 159.05 144.616
147.571 159.985 194.122
147.648 161.423 135.257
147.728 161.54 136.664
148.975 161.507 141.348
148.677 161.496 142.787
147.219 161.533 194.097
147.527 163.372 166.521
148.195 165.691 109.576
147.488 164.939 148.063
147.357 164.864 153.619
147.816 165.023 156.965
147.575 166.154 114.678
147.458 166.376 120.447
147.889 166.662 142.825
148.393 166.954 144.556
149.633 167.904 146.627
148.356 165.974 149.149
147.352 166.273 184.983
148.487 167.64 110.61
147.762 167.572 147.452
147.49 167.68 158.373
147.954 169.482 139.714
147.312 170.859 122.442
147.386 170.518 138.636
147.448 170.817 139.8
149.436 172.457 154.351
147.369 175.384 158.596
148.943 175.803 182.296
147.815 177.118 187.062
147.834 180.82 111.616
147.803 180.121 113.28
147.718 182.403 170.376
148.822 184.361 144.563
147.659 184.057 159.21
149.737 183.838 170.865
147.69 185.616 184.1
147.772 187.513 117.232
149.801 187.363 193.818
148.447 188.786 167.033
147.53 190.78 190.568
147.756 192.853 125.211
147.836 191.914 173.115
147.5 191.806 185.829
149.083 191.215 196.458
148.503 193.447 122.869
150.189 195.568 175.749
149.218 198.165 172.597
147.859 197.2 174.027
148.029 197.842 183.688
147.175 197.46 189.468
149.743 198.948 112.691
147.335 200.446 143.974
147.909 198.876 168.031
147.71 198.457 182.102
147.404 199.035 188.892
149.784 199.036 195.503
149.821 201.182 114.201
147.898 202.228 127.18
147.701 201.717 187.841
147.561 203.738 121.385
148.223 204.285 122.775
148.101 203.574 186.548
147.582 205.744 145.948
148.897 205.439 185.766
149.412 210.248 149.293
147.875 213.355 151.874
149.876 99.6334 148.351
149.922 100.764 147.876
149.59 101.153 149.594
149.202 106.05 142.268
149.446 105.524 150.447
149.864 107.317 142.902
150.837 107.569 170.97
150.191 107.441 172.456
150.131 107.409 174.036
150.486 108.623 175.625
149.941 107.442 181.824
149.379 107.628 183.348
149.878 108.712 142.969
151.24 108.817 170.983
150.137 109.052 177.247
149.112 108.878 184.838
149.055 108.95 186.509
150.089 110.287 141.551
150.026 110.226 144.438
151.192 109.704 172.366
151.01 112.062 142.782
150.077 112.554 151.71
149.067 111.494 185.071
148.896 111.466 187.792
149.265 114.34 143.479
149.851 113.476 150.772
149.985 114.827 150.625
151.133 114.902 155.247
150.518 116.078 158.649
150.426 115.652 160.115
150.414 115.626 161.626
150.409 115.791 163.128
150.845 117.303 164.95
149.047 115.952 197.701
151.096 115.721 153.183
150.068 117.389 169.629
149.846 116.51 177.377
150.123 116.895 178.702
151.168 117.98 157.978
148.994 118.267 184.887
148.855 119.891 127.379
150.257 119.367 169.899
149.068 120.297 188.121
149.629 120.154 202.176
149.384 120.528 203.336
148.936 121.18 125.846
149.288 122.35 126.152
148.823 122.735 198.994
148.949 124.283 197.11
149.015 126.161 136.83
149.047 126.693 138.25
149.684 126.846 139.582
149.747 125.913 196.534
149.116 127.753 156.826
149.266 128.266 161.465
149.463 127.048 197.031
150.594 129.123 121.542
149.509 131.414 125.99
149.498 130.987 138.438
151.532 131.129 124.815
149.52 132.545 171.663
149.781 133.449 192.692
149.568 135.859 131.852
149.069 135.698 133.267
150.794 134.848 186.053
149.606 134.953 189.857
149.056 135.423 201.344
150.49 135.586 203.303
149.742 137.448 201.379
149.485 136.773 204.933
148.971 137.99 132.482
149.524 143.256 166.566
150.193 142.913 167.228
149.963 144.527 203.56
149.226 144.658 166.284
151.072 146.254 135.662
149.1 145.971 149.584
149.259 146.103 150.816
149.241 146.209 152.029
150.018 149.33 199.139
148.881 147.215 206.886
149.301 150.039 201.996
149.088 150.093 203.464
148.985 150.137 204.804
150.044 151.569 138.27
149.537 154.803 117.036
150.665 153.452 160.882
149.23 152.037 167.813
150.323 155.695 153.982
149.158 154.687 155.39
149.076 154.594 156.734
149.45 153.925 158.364
150.385 153.422 162.883
149.413 153.807 166.222
149.087 155.483 115.361
149.385 155.223 128.99
150.321 155.045 152.484
148.669 157.089 104.442
149.096 156.576 116.65
148.735 158.667 108.737
149.059 161.604 135.294
148.887 160.169 139.908
149.184 160.211 143.043
149.119 161.341 140.125
149.041 161.12 144.052
149.591 162.908 156.207
149.404 164.939 126.008
149.012 164.528 156.272
148.747 166.592 114.981
149.792 166.295 125.904
149.726 168.729 138.559
149.218 168.678 140.458
151.743 167.381 199.942
149.257 170.347 191.812
150.76 173.178 161.142
150.138 172.148 165.478
150.071 174.453 173.07
149.966 173.922 171.1
149.273 174.115 182.534
149.319 177.135 187.859
151.119 175.452 195.794
151.034 177.104 147.335
149.176 177.177 152.507
149.235 177.139 180.35
149.256 177.064 181.817
149.481 177.146 183.364
150.181 177.967 184.921
149.333 177.826 186.393
150.098 177.569 195.099
149.194 180.186 112.478
151.583 178.792 148.07
149.296 178.786 192.904
149.39 184.013 182.157
149.063 184.116 158.681
149.125 183.766 159.802
149.283 183.117 168.036
149.527 186.377 117.44
149.879 186.557 144.709
149.573 184.849 160.985
149.007 185.592 183.563
149.103 185.791 184.912
149.922 185.839 186.573
149.466 185.759 187.922
149.373 188.138 192.918
149.411 187.861 194.118
149.767 189.405 115.771
148.962 189.877 191.34
149.176 192.146 125.748
149.123 192.935 121.408
149.146 193.336 124.287
149.533 194.903 153
149.351 197.623 183.97
151.38 197.113 199.168
149.432 197.696 111.875
149.406 198.023 156.995
150.048 198.009 162.809
150.295 197.718 164.593
149.308 197.33 170.889
149.057 197.09 173.993
149.638 197.346 185.857
151.343 200.069 126.766
148.762 200.174 144.196
149.566 198.671 166.693
150.023 199.42 197.015
149.891 202.196 116.517
149.522 200.619 127.189
148.746 200.314 145.794
150.169 201.381 173.236
150.158 202.369 117.909
148.999 201.914 126.639
149.121 202.028 187.894
149.316 203.649 187.078
148.918 205.757 146.063
149.416 205.934 180.404
150.392 205.869 181.403
150.242 205.638 183.347
149.932 209.879 150.563
150.698 97.7854 183.399
151.043 97.6296 184.539
150.556 101.878 150.575
152.17 106.118 155.513
153.019 105.855 157.539
150.541 105.94 142.236
150.547 105.442 149.29
152.05 106.634 151.314
151.676 106.421 153.914
152.676 107.453 161.519
151.571 108.151 169.566
150.605 107.418 180.195
151.765 108.404 151.924
151.263 108.796 160.261
152.073 109.612 164.767
152.494 109.393 166.282
151.756 108.782 167.969
150.828 109.395 173.97
151.136 110.448 142.932
150.314 110.619 145.616
152.228 110.219 169.526
151.361 110.484 171.04
150.973 110.526 178.921
150.767 113.678 153.762
152.186 113.809 203.817
150.487 115.945 197.46
150.587 116.19 150.887
150.8 116.507 157.343
150.755 117.282 167.72
150.712 116.561 198.842
150.73 117.621 159.802
152.299 117.624 199.729
152.763 119.296 202.005
150.413 119.481 176.701
150.417 119.564 183.437
150.932 119.789 202.687
150.535 121.439 127.657
150.629 121.708 201.134
150.879 125.767 156.016
150.891 129.014 138.483
152.079 129.787 122.656
150.896 130.67 138.992
151.424 131.732 123.197
150.756 132.93 172.445
150.856 133.655 173.902
150.553 134.286 194.102
151.545 135.771 188.249
150.864 135.36 189.586
150.578 135.148 190.856
150.435 135.223 202.197
150.808 135.988 204.649
150.922 136.787 166.25
151.506 136.721 190.151
152.885 139.854 149.821
151.708 137.873 189.883
150.608 141.512 167.822
152.376 143.74 197.533
151.163 142.973 198.974
151.052 143.714 200.395
151.712 145.9 150.38
150.677 144.565 166.308
151.837 145.077 194.236
150.683 144.42 202.08
150.638 145.992 166.822
150.381 147.128 193.977
150.497 149.908 201.844
150.394 150.069 203.328
150.146 150.682 143.296
150.387 151.276 145.425
150.491 150.637 204.926
150.439 154.561 123.317
152.287 154.531 185.244
152.635 154.301 195.924
150.647 156.845 129.717
150.57 159.314 144.436
151.114 158.03 153.67
150.739 162.788 141.187
151.467 164.062 188.859
151.706 163.33 202.769
150.694 167.949 125.294
150.767 168.768 140.339
153.378 168.694 181.693
152.105 169.921 185.911
151 169.855 192.954
150.71 172.785 163.194
151.413 173.4 168.642
151.471 174.375 200.402
153.135 174.132 139.354
151.81 174.098 156.361
150.877 174.562 163.289
150.792 173.856 164.508
150.487 174.196 177.249
152.169 175.016 198.201
152.007 174.05 201.79
150.929 175.949 147.785
152.601 175.616 151.573
150.837 176.674 158.28
150.803 175.567 177.989
150.815 175.869 183.323
150.703 176.568 188.155
150.718 177.609 111.367
151.005 177.494 141.03
150.828 177.01 152.491
150.634 176.683 174.021
151.522 177.49 178.308
150.635 177.196 180.107
150.518 177.081 181.953
150.673 177.637 183.61
150.507 177.368 186.382
150.874 176.917 189.225
150.812 176.755 196.902
151.933 180.384 111.209
151.312 178.916 112.303
152.143 179.538 192.582
150.731 178.551 194.118
150.502 178.256 195.391
152.278 182.441 106.945
150.962 181.478 111.815
150.791 184.281 160.662
150.762 183.412 173.818
150.359 184.745 158.945
150.754 185.761 188.59
150.618 186.703 117.393
150.763 188.492 116.939
150.834 190.04 167.33
150.612 191.148 196.634
150.873 192.363 106.165
150.783 192.181 126.213
150.72 191.014 160.173
150.537 193.573 123.93
151.325 194.605 153.972
150.727 192.893 185.479
151.829 194.646 106.701
151.909 194.823 108.745
151.718 196.03 111.195
151.573 194.351 185.56
151.195 196.03 151.131
150.905 195.784 152.36
150.577 195.922 158.751
151.124 196.348 160.056
151.312 196.758 185.323
152.249 195.728 193.737
151.419 197.423 197.328
150.991 197.431 117.804
152.24 196.646 151.253
151.486 198.081 156.198
150.625 197.146 158.435
150.687 197.382 161.717
150.679 198.06 166.298
151.52 197.3 194.528
150.668 199.157 114.588
151.266 198.528 200.054
151.556 200.759 149.129
150.497 203.693 186.575
150.527 205.185 184.921
150.469 204.988 186.217
152.753 94.8373 153.519
152.104 95.5362 173.487
152.932 97.0817 184.448
152.585 99.2971 184.991
152.212 101.899 152.406
152.326 101.227 153.82
152.445 100.98 155.221
152.793 102.578 153.626
152.257 104.236 154.012
151.861 106.799 142.521
153.056 105.97 159.981
153.105 107.273 160.205
152.305 107.37 162.799
152.248 107.498 167.982
152.157 108.232 153.688
152.455 108.537 160.289
152.433 110.052 158.535
152.845 110.178 167.887
152.431 111.371 169.54
153.661 116.299 193.15
152.721 116.288 191.486
152.211 116.539 197.675
152.235 119.376 157.691
151.841 119.916 175.389
152.884 119.434 200.845
152.467 119.884 203.267
152.734 121.247 175.573
152.048 121.109 200.685
152.607 121.133 203.482
153.489 122.822 204.707
152.535 126.406 120.883
153.492 126.564 161.713
152.954 127.569 120.545
152.877 129.58 120.564
152.417 129.968 138.743
154.694 129.309 133.554
152.885 130.343 135.28
152.605 130.313 136.91
151.89 131.798 139.055
152.715 133.815 188.009
152.294 133.226 125.919
152.349 134.571 128.952
153.166 133.391 166.746
152.208 133.848 173.327
152.488 134.787 189.314
152.311 133.642 194.22
152.311 136.168 143.205
152.345 135.103 166.943
153.147 135.354 173.972
153.486 134.875 182.552
152.238 136.678 166.215
153.388 136.627 174.066
152.373 136.894 184.886
152.444 139.243 169.211
152.209 138.422 184.942
153.281 139.427 191.488
152.526 141.039 147.733
152.414 142.294 174.339
152.472 143.096 165.492
152.883 143.819 199.525
153.439 143.481 165.192
152.294 144.859 192.95
152.495 145.771 148.189
152.324 146.051 166.854
152.51 147.509 166.38
154.049 148.707 166.398
151.809 149.192 199.186
151.954 149.217 200.412
151.984 149.303 201.627
154.127 150.009 164.724
152.354 153.005 173.817
152.327 158.077 154.043
152.315 159.836 144.782
152.363 160.371 146.057
152.303 160.381 147.55
152.578 161.621 146.306
152.362 161.852 203.45
152.302 164.567 202.714
154.521 166.901 121.88
154.986 166.099 161.97
153.953 166.904 164.686
154.347 166.421 167.707
153.315 166.769 170.872
153.189 166.98 177.427
152.874 166.485 194.2
152.309 166.21 201.626
152.635 167.694 169.682
153.871 169.146 174.584
152.49 167.836 178.548
152.678 168.05 193.824
152.288 169.556 124.399
152.534 169.762 192.418
153.482 171.187 124.071
152.803 174.506 145.356
152.209 174.633 163.123
152.097 175.309 173.477
153.927 176.436 140.34
153.436 176.555 145.915
151.94 175.515 149.447
152.68 176.596 183.885
152.473 176.287 189.345
152.471 177.039 142.592
152.469 176.887 146.337
152.228 177.299 147.472
151.849 177.149 179.909
152.583 179.289 114.021
152.202 180.735 107.436
152.205 180.237 109.112
152.261 180.287 111.906
152.515 180.192 113.154
152.523 182.347 160.437
152.154 183.493 172.412
152.322 184.111 160.708
152.572 187.396 118.367
152.545 186.051 188.743
151.898 186.621 186.908
154.612 187.339 198.76
152.185 190.039 166.765
152.465 189.314 192.854
152.379 191.087 197.723
152.187 191.583 105.457
152.31 192.153 126.358
152.489 192.644 105.12
152.317 193.414 121.195
151.932 192.889 124.719
153.707 192.905 146.782
152.466 192.789 184.38
152.03 195.795 112.87
153.714 195.684 149.287
152.32 195.734 155.12
152.575 198.272 119.494
151.915 198.524 150.545
152.737 199.56 186.002
152.663 199.129 201.756
152.674 200.355 183.835
153.605 200.412 184.929
153.027 200.336 202.453
152.96 205.669 180.607
151.933 205.268 183.096
154.609 94.2987 153.417
153.691 99.9154 185.728
153.75 100.786 184.398
153.713 102.474 151.771
153.567 105.936 162.775
153.757 108.468 157.314
154.156 108.789 159.402
155.668 110.028 192.874
153.987 112.99 203.285
155.653 114.668 175.825
156.323 116.282 184.171
155.408 116.297 186.306
155.494 118.005 190.331
154.006 116.546 193.996
153.357 118.22 157.071
154.732 117.884 194.186
154.798 118.052 195.623
154.32 121.352 162.004
155.791 119.491 185.862
154.72 119.444 195.682
154.574 120.397 203.958
153.977 120.97 158.399
154.703 131.406 203.473
153.894 133.92 194.999
154.772 131.97 204.893
153.729 133.097 165.134
153.597 135.063 166.907
153.844 135.553 175.445
153.735 135.587 184.517
153.87 136.882 142.962
154.61 136.991 175.561
153.77 137.069 184.419
154.057 139.566 168.525
154.914 138.019 174.829
155.446 138.797 179.795
153.991 138.37 198.907
153.947 138.87 200.617
154.6 138.984 202.049
154.875 139.687 144.631
153.943 139.411 197.376
153.84 141.261 146.133
153.721 141.205 147.684
153.909 141.628 174.121
153.798 142.806 173.914
153.404 145.716 150.512
154.053 145.865 189.733
154.027 146.042 192.75
154.237 148.282 171.625
154.496 149.089 167.585
154.92 149.33 195.956
154.403 150.826 163.406
154.871 150.669 196.685
153.733 152.275 161.702
153.756 151.901 162.983
154.586 154.492 191.621
154.667 157.221 162.785
154.295 155.508 180.045
155.423 156.041 188.871
153.857 155.265 194.252
153.574 154.947 195.591
154.528 156.949 149.953
153.739 158.201 154.582
153.783 157.24 179.126
154.349 157.009 183.562
155.517 158.633 113.004
153.791 158.456 152.655
155.467 158.164 173.813
156.287 159.078 114.983
154.275 160.258 116.58
153.392 161.8 147.197
153.566 163.341 202.868
156.005 164.602 111.317
155.485 165.07 155.501
153.468 164.992 172.517
154.646 165.398 204.262
154.643 167.166 119.937
154.783 166.401 154.068
153.809 167.389 199.875
155.759 167.536 158.521
154.922 167.631 159.91
154.394 168.168 174.154
153.744 167.91 178.503
154.548 169.097 122.742
153.663 169.65 124.035
153.921 168.999 179.026
153.82 169.396 184.946
153.753 169.987 186.285
154.223 170.047 190.485
153.947 172.848 139.165
153.423 173.99 200.538
153.564 173.874 201.779
153.486 175.979 173.838
154.346 177.06 142.754
153.891 179.402 114.151
153.633 181.194 112.66
154.316 184.831 159.871
153.462 183.773 172.372
154.683 185.137 147.468
154.332 186.461 169.437
154.488 185.121 171.291
154.664 185.578 172.578
154.151 185.052 173.658
153.758 187.843 117.327
155.203 186.017 173.846
155.886 188.861 106.145
153.945 189.056 192.987
154.666 189.54 108.654
154.781 189.918 186.613
154.826 193.408 105.707
153.948 191.93 126.651
153.958 191.468 185.111
153.974 193.02 183.657
153.816 194.913 148.372
155.95 195.875 203.494
154.555 198.328 120.395
154.907 198.219 145.815
153.985 198.95 121.095
155.715 200.073 179.001
154.025 198.974 202.677
154.285 200.273 121.313
154.062 200.512 124.407
153.573 200.293 125.547
154.749 201.229 181.706
154.279 200.927 183.216
155.682 201.265 123.221
153.837 203.933 180.372
156.719 93.1759 162.607
156.43 94.8147 163.437
156.269 95.9889 163.241
155.798 99.6685 152.371
155.327 99.3961 184.831
155.601 101.037 152.189
155.37 100.645 184.809
155.429 102.528 152.275
156.064 107.585 173.936
154.769 107.223 161.678
158.486 108.314 198.687
158.105 108.912 187.379
156.712 110.967 150.958
155.54 110.92 194.243
156.136 110.399 195.597
157.198 114.99 177.773
156.513 112.111 201.205
155.165 112.975 203.58
156.504 113.097 150.66
157.58 114.242 148.513
158.014 114.689 161.605
155.209 116.087 194.23
157.876 115.917 166.735
155.81 116.289 175.629
156.323 116.562 182.047
155.371 116.757 187.944
155.54 116.783 195.463
155.742 117.961 181.899
156.09 117.846 184.978
155.448 117.985 186.433
155.399 117.971 188.064
155.211 117.996 196.84
155.297 120.637 163.145
156.989 119.638 175.605
156.092 119.55 192.699
155.487 119.44 194.24
156.461 121.016 193.69
156.429 123.221 129.159
155.544 125.464 130.478
155.368 127.476 161.741
156.166 128.323 196.568
155.636 130.603 200.69
155.236 131.264 202.003
155.817 134.417 194
155.929 134.506 195.61
157.74 135.768 138.102
155.796 135.608 145.602
157.772 137.25 136.941
155.542 137.665 143.194
156.074 137.619 144.454
155.975 136.823 146.231
155.314 137.599 177.132
156.09 138.309 145.751
155.447 139.158 168.735
157.254 139.785 196.699
155.472 139.42 143.058
155.597 139.814 145.878
154.829 139.957 149.461
156.676 139.373 174.64
155.021 139.951 190.589
156.053 142.047 140.259
155.531 141.109 146.199
155.064 141.35 150.915
155.268 142.26 164.693
155.467 143.048 151.578
155.436 146.147 191.382
156.829 146.667 192.578
156.818 146.936 194.175
155.242 147.95 164.777
155.727 147.931 195.548
155.727 148.472 200.503
155.551 149.302 197.206
155.76 149.098 198.882
155.018 152.202 196.027
155.194 154.242 174.253
155.827 154.827 180.612
155.515 154.717 186.633
157.194 155.353 168.847
156.166 156.114 173.989
155.542 155.643 179.029
156.476 156.664 183.358
156.917 159.112 119.741
155.414 156.841 178.786
156.198 159.315 116.591
157.11 159.267 124.927
155.859 158.405 129.705
155.546 158.142 178.75
155.606 160.086 111.478
157.06 159.873 129.024
155.79 163.591 198.783
156.469 164.38 198.737
155.317 164.816 202.005
156.877 167.131 151.56
156.247 166.813 157.065
155.328 166.22 199.629
156.875 169.326 109.483
155.334 167.716 149.499
155.35 167.594 153.843
155.374 167.423 155.345
155.277 167.557 199.674
155.542 169.234 119.852
155.325 168.979 121.162
157.219 170.674 139.179
156.024 169.736 144.548
155.237 170.02 185.728
155.185 169.507 187.952
155.796 171.01 119.075
157.691 171.781 142.362
155.451 172.505 139.672
155.036 174.07 139.791
156.013 176.121 169.334
155.097 177.088 146.288
155.444 179.885 113.974
155.533 178.388 147.571
155.786 183.105 176.281
155.351 185.062 161.427
155.646 184.86 163
155.502 184.765 175.101
155.206 187.926 117.024
155.318 186.508 147.488
155.661 188.359 193.529
156.395 188.992 146.482
155.501 187.876 195.773
157.855 189.486 118.651
156.264 189.726 126.645
155.548 191.052 106.377
155.427 191.17 126.688
155.872 191.154 147.542
155.242 191.319 185.091
155.336 190.791 187.768
155.317 192.549 126.735
155.995 192.803 146.971
155.912 192.97 183.461
156.569 192.996 202.51
155.48 193.988 126.729
155.447 194.039 146.891
157.514 195.227 160.021
157.02 195.52 167.843
156.388 194.415 200.747
156.246 194.396 202.727
155.689 195.559 146.124
155.682 195.786 175.376
157.21 195.823 178.428
156.805 195.679 200.685
156.152 195.817 202.124
156.2 196.581 204.918
156.651 196.737 206.259
156.137 197.38 179.333
156.097 197.246 202.855
155.271 199.07 147.314
155.251 199.365 181.259
155.434 198.537 202.835
155.454 200.69 121.104
155.584 200.177 146.931
155.514 201.656 180.282
157.796 95.6004 171.722
157.148 96.1689 152.336
157.143 98.7687 152.936
156.716 99.5526 184.76
156.97 100.953 152.966
157.849 102.864 152.792
157.146 103.786 152.169
159.019 108.166 190.246
157.029 109.678 194.163
156.974 110.175 191.233
156.971 110.354 192.812
157.114 110.758 201.748
156.867 111.555 199.409
156.468 111.886 203.022
157.103 113.399 149.363
157.332 114.395 155.524
158.362 115.08 163.079
157.066 114.708 150.566
158.53 115.147 153.952
158.55 115.267 159.893
158.148 115.905 164.84
157.89 116.67 172.562
156.908 115.09 175.774
156.984 116.29 195.689
158.162 117.474 170.941
158.014 116.292 173.812
157.689 116.613 180.094
158.629 117.463 169.424
156.924 118.244 175.548
157.034 117.891 178.721
156.945 117.96 180.112
156.558 117.7 195.758
158.042 119.737 164.109
156.996 119.147 170.64
156.991 119.546 176.964
156.739 119.592 180.288
156.94 120.991 191.573
159.691 123.998 200.128
156.884 125.356 129.305
157.066 127.309 130.765
157.125 127.472 132.103
156.979 127.677 162.896
156.716 129.279 198.57
157.366 130.54 166.191
157.124 130.099 197.647
157.052 130.399 198.926
156.751 130.663 200.198
156.781 131.994 199.732
157.496 135.894 139.686
157.228 135.268 200.359
158.071 137.327 141.993
156.844 137.59 142.935
157.222 136.668 200.552
157.055 138.057 141.727
156.81 139.142 168.927
157.838 139.248 170.387
157.458 138.832 172.652
157.776 140.527 198.641
157.525 141.55 175.205
157.702 142.92 146.683
157.021 144.704 169.227
159.151 148.995 142.554
157.325 147.594 144.031
156.771 148.263 195.905
157.594 148.299 197.493
157.794 148.194 198.935
157.661 148.17 200.655
158.495 150.557 148.667
156.441 150.137 197.302
156.875 153.275 191.833
157.875 153.826 135.582
157.576 154.92 170.697
156.943 156.074 162.696
156.932 156.306 177.77
156.872 155.556 178.746
158.603 155.769 198.009
156.771 157.415 124.423
157.131 158.324 129.908
157.66 158.801 120.95
158.295 158.892 135.123
157.25 158.475 139.28
156.657 158.092 172.726
157.423 160.734 127.701
158.58 159.987 132.546
157.154 160.269 194.851
156.67 163.22 110.662
158.782 163.489 173.441
157.073 163.903 188.149
159.918 165.566 191.904
158.01 167.857 145.197
158.932 169.435 115.122
157.091 171.144 118.781
156.681 169.713 119.467
158.638 169.519 147.298
156.853 168.828 150.772
157.001 170.352 195.187
156.877 170.925 144.355
157.044 172.09 144.091
156.825 177.736 113.247
157.103 177.114 127.309
157.64 178.524 147.748
156.757 178.938 113.534
156.903 179.576 114.871
157.217 179.668 116.241
156.886 180.565 113.162
157.021 183.719 163.116
157.243 183.562 172.736
157.234 184.651 173.689
156.768 183.486 175.329
158.427 185.287 107.942
156.721 187.464 198.953
157.11 188.252 126.588
156.708 188.851 192.848
156.768 187.907 197.527
157.069 188.052 200.353
157.199 188.443 201.652
156.916 190.97 105.122
156.73 191.007 126.752
159.126 192.61 175.559
156.768 192.555 127.267
157.079 193.106 200.753
156.76 193.946 127.161
157.293 194.758 146.046
157.7 196.193 161.586
157.215 195.702 173.821
159.246 193.637 194.753
156.865 194.644 204.685
158.951 196.281 163.137
157.034 195.829 175.539
156.987 195.559 199.414
157.842 197.258 160.211
157.866 197.112 164.421
156.879 197.194 177.46
156.859 197.099 200.814
156.85 200.038 120.975
159.038 198.911 155.504
159.009 198.837 158.427
157.803 198.647 159.912
157.05 198.468 200.982
156.771 198.564 202.179
156.712 198.487 203.448
156.768 198.427 204.993
157.663 200.856 125.154
157.214 200.452 125.522
156.993 201.245 147.852
158.127 201.138 150.106
156.591 202.044 181.367
157.61 203.071 149.254
158.498 207.183 182.246
158.665 94.8208 152.278
158.488 98.6533 153.014
158.671 101.626 185.181
159.139 108.408 181.792
158.666 108.135 183.37
159.239 108.159 184.969
159.305 108.515 192.418
158.396 107.226 196.089
158.615 107.771 199.963
159.479 109.545 144.593
159.759 109.384 146.028
159.984 109.499 147.285
158.851 108.871 177.23
160.239 109.492 178.81
158.984 108.75 180.416
158.316 108.935 193.901
159.885 111.189 142.807
159.022 110.005 181.95
158.586 109.968 185.1
158.342 109.969 192.81
159.361 111.595 146.057
159.207 111.546 187.247
158.972 114.33 155.966
158.552 115.118 152.545
158.656 115.138 158.572
158.107 115.148 175.727
158.43 116.259 196.59
158.443 117.849 164.571
158.451 117.472 168.201
158.12 117.761 173.777
158.412 127.179 132.018
158.319 130.595 165.292
159.412 133.517 135.15
159.262 131.832 166.195
159.969 134.497 132.962
159.277 133.918 136.559
158.607 135.276 136.974
158.576 136.318 200.453
159.441 136.918 174.315
158.334 138.259 174.566
158.746 141.229 170.116
159.861 141.772 169.856
158.626 147.115 136.431
159.467 146.763 138.648
158.443 146.066 168.626
158.532 147.899 144.153
158.091 147.498 195.95
159.206 150.706 146.092
158.642 153.09 158.526
159.662 155.304 165.926
158.388 154.707 177.783
159.915 156.42 145.656
158.605 156.14 163.218
158.469 155.575 167.869
158.605 158.022 130.028
158.537 157.161 135.317
158.566 157.898 139.799
158.513 156.844 172.556
159.895 158.749 136.09
159.263 158.69 138.334
160.039 158.401 144.491
158.03 160.118 116.383
158.458 159.748 130.653
159.026 159.896 138.658
158.653 160.611 194.575
160.085 161.582 144.065
159.268 161.744 160.737
158.463 162.1 173.048
160.298 164.043 148.197
158.96 164.214 188.05
159.276 162.916 196.185
158.555 163.77 197.55
160.223 164.211 146.017
160.769 165.478 184.34
159.281 164.664 189.633
158.517 166.456 109.693
158.721 166.441 145.905
160.667 166.745 178.687
160.559 166.238 183.454
160.149 166.091 186.364
158.885 170.118 116.651
160.607 167.39 170.706
158.726 170.869 118.372
158.874 171.376 112.018
158.486 170.924 113.395
158.573 170.667 115.002
158.449 170.789 194.402
158.488 170.86 195.692
158.899 170.819 197.025
159.148 172.369 113.313
159.899 173.167 155.51
160.496 173.179 161.531
160.248 174.992 170.279
159.392 174.823 177.841
158.639 175.9 126.612
160.689 174.918 164.596
161.178 175.75 175.079
160.32 175.686 188.801
158.465 177.165 126.756
158.856 177.933 181.673
158.539 179.61 116.382
158.879 178.764 126.741
158.288 180.285 113.751
158.46 180.138 115.029
160.368 180.242 127.018
158.721 184.893 105.98
160.479 185.589 144.713
160.496 185.535 147.469
158.481 185.492 173.529
159.55 186.036 175.503
159.716 185.866 176.831
158.861 186.875 119.786
159.962 188.545 200.544
158.787 189.032 110.763
158.579 188.024 127.397
158.4 188.429 144.805
159.325 188.748 163.076
159.637 189.701 193.591
158.583 187.985 199.107
158.233 190.38 104.869
158.201 189.411 127.432
158.333 189.503 146.712
158.718 189.567 192.761
159.745 192.225 141.541
158.404 192.669 167.816
159.408 194.018 173.559
159.167 193.508 177.003
158.577 193.798 178.304
158.494 192.723 202.076
158.596 192.752 203.379
158.801 192.875 204.61
158.353 195.954 164.54
158.238 195.939 169.112
158.452 195.537 173.34
161.461 198.167 186.246
159.557 198.095 123.998
158.943 198.127 139.91
159.445 197.919 156.599
159.889 199.95 152.067
158.706 199.061 153.924
159.367 200.948 153.824
159.173 200.286 155.237
158.621 200.213 156.823
159.982 200.826 165.101
161.69 200.364 198.596
158.118 202.191 180.008
158.927 203.45 147.997
160.514 203.695 148.859
158.751 205.194 179
158.578 205.13 180.272
158.493 205.24 181.606
158.698 206.417 180.406
160.021 94.2795 152.211
159.657 96.3378 172.364
159.95 98.3432 152.888
161.194 100.639 145.348
160.876 102.81 144.664
160.27 104.213 144.541
160.187 103.888 152.36
161.094 105.723 144.302
161.498 107.164 143.846
160.885 107.323 145.677
159.924 107.645 181.916
159.894 107.456 183.367
160.783 108.594 143.124
161.466 109.498 167.164
161.063 109.606 172.551
160.97 109.562 174.023
160.882 109.544 175.636
161.025 109.378 177.293
160.948 110.358 180.811
159.674 108.914 186.333
159.987 111.71 144.4
161.944 111.732 170.392
159.918 114.244 156.987
160.79 114.158 157.996
160.133 115.495 197.037
161.945 115.83 199.436
160.605 116.32 199.977
162.233 120.993 195.023
160.173 123.717 201.621
159.896 124.415 190.506
160.346 124.323 197.802
160.777 125.555 198.775
160.137 127.127 161.64
160.891 127.171 197.378
160.061 130.666 197.172
161.199 133.156 128.066
160.367 132.112 163.085
160.24 135.26 137.191
161.472 136.191 166.935
160.815 136.007 199.718
159.869 136.616 136.859
159.854 138.177 136.775
161.006 138.294 166.679
160.911 139.765 166.55
160.796 140.55 168.007
159.771 140.704 196.629
161.024 141.824 143.072
161.31 144.326 131.236
160.496 147.584 136.002
160.104 147.493 167.946
160.035 151.987 149.186
160.528 153.874 158.801
160.887 153.908 149.293
159.509 153.638 171.228
160.317 155.706 147.652
161.011 155.433 149.516
159.956 156.238 163.25
160.455 155.646 193.061
160.936 156.067 194.329
161.127 158.091 140.92
160.568 160.013 143.471
160.011 161.469 132.036
160.602 161.588 188.085
160.258 163.151 197.945
160.196 163.013 160.401
159.958 163.361 188.725
162.08 165.191 161.236
159.955 164.71 172.615
160.17 166.276 172.267
160.574 166.946 177.364
160.959 167.025 180.175
160.21 166.454 181.914
161.079 168.523 181.466
160.346 167.374 183.023
161 170.884 197.396
160.157 170.881 195.933
160.752 173.499 167.614
160.021 173.376 183.382
160.638 174.589 160.098
160.839 174.765 166.182
160.028 174.769 172.444
160.153 175.472 153.938
160.38 175.579 174.205
160.191 177.906 119.95
159.993 177.336 127.208
160.029 176.612 176.727
160.507 177.656 181.465
160.916 178.818 113.776
161.061 179.297 115.566
160.453 178.256 187.763
160.292 184.329 104.418
160.294 184.317 105.746
160.773 184.985 102.786
160.105 184.919 107.18
160.003 185.102 108.416
161.635 184.873 115.945
160.711 186.036 143.334
160.737 185.796 146.111
160.134 185.495 167.308
159.887 186.289 174.335
160.836 186.924 127.749
159.996 186.348 166.462
160.498 187.983 146.964
159.561 189.861 104.583
160.348 189.82 116.954
160.014 189.406 146.191
160.677 190.012 203.034
161.109 191.143 116.11
160.597 191.263 203.044
161 192.334 116.501
160.548 192.352 202.214
160.394 192.869 203.576
160.581 192.788 204.662
159.835 194.153 178.534
160.219 195.686 171.085
160.311 198.157 140.04
159.628 199.282 164.684
160.956 198.936 196.744
159.969 200.23 125.079
161.145 200.335 141.945
160.355 200.636 142.785
160.667 200.63 196.144
160.909 201.939 141.56
160.188 201.924 142.871
159.957 201.902 144.497
161.84 201.767 185.405
161.053 203.319 141.855
160.977 202.87 146.431
161.63 94.0863 155.211
161.679 94.5902 153.909
161.426 96.092 180.617
161.873 101.055 147.24
163.217 103.32 153.464
161.63 104.247 145.274
162.186 104.138 147.061
162.822 104.473 150.96
161.901 104.409 156.973
162.694 104.202 158.4
163.024 107.315 155.028
162.966 106.569 156.877
163.916 108.056 160.227
163.617 108.091 161.609
163.446 107.596 163.257
162.399 108.226 169.443
162.352 108.218 170.799
161.613 107.763 178.805
161.075 108.787 191.547
161.997 109.919 165.01
161.697 110.229 169.424
161.652 110.284 170.94
161.69 111.352 168.231
161.599 115.484 197.538
161.664 114.93 196.266
162.886 120.509 188.071
162.828 121.169 186.666
163.06 120.705 189.434
161.478 123.699 201.926
162.647 126.096 158.002
162.814 126.991 160.095
162.342 126.92 161.426
162.476 127.579 162.888
161.467 128.767 197.327
163.056 130.4 125.39
161.777 131.368 163.251
161.746 131.416 164.463
161.62 132.106 130.451
162.216 132.266 132.071
161.539 132.291 133.286
161.253 133.613 201.989
162.523 135.594 169.293
161.453 136.512 137.689
162.159 137.85 202.072
162.212 138.237 203.521
162.032 140.89 170.296
163.961 142.702 127.379
161.77 141.457 172.016
163.779 142.925 125.79
161.366 143.292 135.294
161.766 143.307 139.951
161.783 144.435 133.523
161.675 144.549 139.8
161.396 146.091 139.819
161.206 147.388 139.961
161.598 147.553 167.982
161.374 147.528 169.391
162.66 151.055 126.653
162.66 149.345 167.501
162.512 150.937 128.848
162.602 151.538 130.618
161.043 151.076 149.064
162.102 150.521 167.591
161.921 151.055 198.63
161.384 152.276 149.337
162.443 154.384 161.016
162.7 154.468 192.979
162.665 156.759 156.691
161.517 155.997 192.989
161.435 155.97 195.621
161.542 156.869 162.392
161.394 158.298 140.168
161.554 158.636 142.695
161.526 161.784 130.894
162.232 163.209 168.474
163.233 166.342 155.223
162.808 166.021 163.135
161.497 165.172 166.555
162.037 164.882 168.232
163.187 166.966 159.311
162.075 166.725 164.609
162.264 166.241 168.603
162.394 166.451 174.096
162.336 168.4 174.76
161.773 171.553 194.359
161.453 172.854 189.673
161.849 172.451 192.722
162.237 173.936 157.764
161.281 174.315 177.155
161.689 173.778 190.758
162.024 175.582 149.41
162.753 175.973 150.645
161.882 175.624 152.443
161.614 175.498 159.268
161.478 175.437 167.966
161.695 175.995 180.01
161.749 175.519 183.38
161.621 178.966 116.32
161.658 178.682 147.741
162.637 180.49 108.087
162.02 180.131 117.686
162.502 181.923 107.392
162.477 181.791 109.267
162.723 181.65 116.58
161.357 181.993 129.004
161.575 184.257 104.498
162.08 183.976 105.844
162.34 183.48 107.216
162.385 183.323 108.542
162.502 183.269 116.174
161.876 184.217 165.109
162.659 183.626 175.751
162.246 184.739 107.72
162.382 184.984 124.53
162.069 185.344 126.053
162.348 184.998 127.25
161.485 184.829 176.214
161.791 186.064 107.203
161.476 186.231 174.949
161.283 188.568 118.044
162.511 188.27 141.548
163.316 190.309 140.67
161.296 189.76 146.316
161.503 189.781 192.78
162.798 190.553 118.52
161.743 191.192 140.699
161.485 191.12 142.573
161.837 190.894 146.251
161.578 191.106 194.255
161.564 190.776 200.878
162.3 192.437 118.088
163.515 193.721 139.063
161.748 192.484 139.944
161.38 192.305 141.115
161.521 192.967 195.706
161.407 194.714 171.059
162.276 195.083 196.665
162.645 195.909 138.019
162.163 195.919 198.485
161.272 198.256 123.738
161.713 197.22 138.546
161.946 198.211 140.182
162.197 198.219 141.395
162.279 198.344 142.675
162.221 197.222 197.595
161.73 200.53 185.304
161.334 204.9 150.531
162.963 94.2242 154.034
163.627 96.1578 169.593
163.19 99.7652 145.966
163.238 101.133 146.787
163.423 102.76 147.503
163.01 104.635 145.678
163.363 104.13 147.455
163.871 104.779 148.918
162.749 105.601 144.742
163.937 105.335 147.544
163.131 105.622 153.949
163.923 105.736 158.416
163.259 106.2 161.761
163.925 107.134 158.526
163.028 108.69 164.345
162.949 110.187 174.056
162.856 116.221 197.791
164.782 118.949 183.256
165.039 118.293 199.731
164.681 118.129 201.692
165.22 119.384 180.393
163.04 121.258 190.998
163.173 122.322 189.864
163.303 124.32 206.573
163.162 129.388 124.467
163.169 128.649 160.309
163.821 128.86 161.609
163.751 129.997 163.613
163.307 129.13 164.316
163.226 130.767 123.236
163.242 131.814 124.312
163.128 131.845 125.769
162.929 131.746 163.486
163.531 133.033 122.655
162.92 133.751 127.629
163.098 134.262 128.907
163.778 134.362 130.561
162.966 133.725 131.882
162.745 136.947 199.741
164.146 139.153 200.017
163.768 139.736 201.692
163.674 141.587 129.349
163.107 142.351 195.057
163.865 143.517 129.006
163.728 143.085 130.25
163.475 144.691 130.573
163.035 144.477 131.93
163.17 144.39 139.082
163.409 149.405 119.363
163.395 149.023 122.94
164.422 148.823 203.494
163.46 150.326 118.369
162.915 150.547 197.627
163.169 150.813 198.909
164.13 153.157 143.633
163.546 154.547 194.335
163.324 154.836 195.617
162.793 157.273 162.781
163.123 158.452 163.039
166.328 158.306 147.564
164.516 160.938 203.804
163.29 161.968 189.759
165.447 163.008 201.406
165.281 169.263 149.745
163.557 169.737 194.568
163.071 170.222 196.432
163.197 170.887 194.515
163.144 175.56 152.321
162.959 175.401 183.641
163.262 177.213 149.26
162.742 177.033 180.121
162.871 179.04 116.707
163.311 179.562 118.106
163.376 179.335 119.336
163.322 178.68 148.477
162.879 180.499 109.872
162.878 180.253 116.78
162.982 180.584 185
163.115 182.011 106.075
163.148 183.643 127.522
162.79 184.654 104.631
162.895 184.795 105.877
163.655 185.624 174.711
163.026 186.147 106.59
164.271 189.671 112.844
164.325 188.517 164.883
164.135 188.736 166.194
164.54 190.053 193.032
163.137 191.643 146.918
164.475 191.94 178.285
163.312 196.384 184.732
163.749 195.747 139.863
164.271 195.505 194.843
163.013 196.31 196.039
162.914 197.052 138.507
162.858 197.271 139.947
162.889 197.359 186.226
162.833 200.288 142.142
163.024 201.997 141.497
163.13 201.836 185.882
163.396 201.751 187.667
163.061 203.388 142.131
164.577 95.5902 170.802
165.138 96.3984 168.151
164.655 99.6004 146.844
164.606 101.22 146.857
165.146 103.305 146.412
164.574 104.055 147.457
164.584 104.321 159.123
164.633 108.523 158.769
164.947 108.912 172.569
165.561 109.106 173.967
167.133 111.427 188.259
167.022 111.426 189.614
164.596 113.054 144.473
164.704 114.229 194.229
166.799 116.238 162.223
164.417 114.824 195.498
165.647 116.949 154.298
167.049 117.408 159.312
166.371 118.295 166.647
165.909 117.133 177.581
164.921 118.033 155.244
166.349 118.209 164.941
166.219 118.827 169.315
165.592 119.24 170.924
165.918 118.71 172.558
166.581 118.854 174.313
164.881 117.892 177.11
164.893 119.612 146.132
164.873 119.714 175.423
165.476 120.957 174.903
164.34 121.058 186.379
166.916 123.399 163.376
164.84 123.822 206.533
165.726 124.68 202.864
164.839 124.325 205.053
164.951 127.205 203.81
165.669 127.925 205.748
164.561 130.412 127.205
164.744 132.553 122.443
164.666 132.06 124.153
165.846 134.393 138.049
165.507 141.079 122.929
166.241 140.79 124.323
165.059 140.447 125.62
164.772 141.603 125.843
164.64 141.65 195.815
164.628 143.437 195.402
165.347 143.545 197.345
165.218 145.043 199.019
165.386 144.55 200.26
164.769 148.346 122.9
165.202 148.753 162.955
164.855 149.207 195.826
164.768 149.284 197.318
164.563 149.911 199.095
164.731 150.222 200.536
165.233 149.776 201.983
164.603 152.437 141.596
164.362 153.927 160.938
164.76 154.77 196.396
165.915 157.922 152.291
166.149 158.073 150.761
164.397 158.757 162.022
164.759 161.629 129.084
164.607 162.832 190.619
165.198 164.85 151.346
165.746 167.082 144.747
165.485 166.555 149.215
164.847 166.254 150.796
164.79 166.248 152.262
164.714 168.238 144.25
166.198 167.058 146.051
166.213 167.517 147.753
165.499 167.891 149.121
164.809 167.824 150.621
165.522 168.771 193.227
164.434 170.085 195.717
164.64 169.618 197.174
164.786 178.914 118.835
165.482 176.953 144.282
164.769 178.573 148.453
164.795 179.664 107.358
167.785 176.394 141.723
166.213 182.572 152.717
164.665 185.72 175.676
165.563 185.716 177.166
166.217 184.995 178.649
164.55 186.512 163.462
164.858 186.808 164.738
165.109 186.938 166.045
164.675 188.763 118.508
164.655 188.069 163.531
164.771 187.646 177.245
166.349 188.281 189.477
165.617 188.325 191.069
164.675 189.635 114.787
164.718 189.92 177.124
166.613 189.65 189.247
165.347 190.007 191.238
164.247 191.464 146.447
165.176 191.581 175.972
165.307 195.161 124.542
164.307 196.023 186.154
164.43 197.016 183.479
164.197 199.598 199.043
164.587 202.697 142.223
164.759 202.712 186.626
166.145 203.628 187.786
165.148 203.173 189.208
166.594 96.1256 167.329
165.972 97.9693 184.888
166.415 110.513 146.409
166.462 110.983 147.675
167.791 111.723 191.764
167.684 111.467 186.762
166.493 113.587 150.99
167.074 113.556 152.333
167.178 113.173 189.594
166.132 114.04 194.268
167.565 115.634 142.604
167.185 115.759 149.215
167.042 115.108 150.751
167.011 114.97 152.323
166.977 115.049 153.833
167.918 116.292 156.222
168.21 114.751 187.781
166.429 116.26 152.459
166.653 116.603 156.964
166.327 118.307 175.543
166.268 118.074 178.625
166.496 119.653 163.599
166.463 119.276 197.917
167.305 122.481 141.484
166.231 121.016 164.526
166.056 124.287 204.88
166.58 128.586 122.775
166.262 127.039 203.865
166.46 130.499 121.493
167.609 130.125 159.423
166.06 132.457 122.566
166.269 132.717 124.205
166.328 132.173 125.796
166.273 135.377 163.089
167.566 135.166 196.819
167.545 136.478 196.778
166.819 140.742 125.676
166.735 139.763 136.755
166.171 140.141 199.011
166.209 141.394 197.53
166.406 141.347 199.007
165.767 142.547 125.937
166.209 142.972 198.953
166.289 144.461 195.738
166.295 148.105 122.421
166.859 148.472 163.269
166.509 149.587 195.823
166.531 149.013 131.175
166.266 154.567 196.358
167.098 157.591 189.467
166.422 160.025 162.804
166.756 161.408 142.699
166.069 161.974 194.552
166.16 162.241 203.284
168.237 163.548 166.332
168.981 162.626 168.527
166.319 163.343 189.38
168.624 164.375 177.847
169.118 164.766 182.538
166.754 164.379 188.27
167.538 164.184 194.788
168.253 168.451 139.557
167.517 169.424 139.007
166.372 169.016 144.484
167.155 170.947 139.195
167.212 172.494 140.167
166.525 173.653 139.971
166.558 174.095 170.824
167.342 175.792 147.327
166.626 177.938 148.449
166.164 179.058 108.147
166.269 178.967 117.031
166.163 179.501 118.241
166.664 179.661 119.606
167.32 179.398 121.227
166.31 178.725 163.422
167.013 181.815 105.856
167.406 181.22 108.281
166.609 180.552 115.286
166.846 180.702 116.637
167.338 183.031 104.034
167.048 182.771 123.956
166.534 182.717 125.564
166.527 185.38 166.459
166.125 185.703 175.946
166.537 186.967 165.884
168.135 189.345 169.913
166.663 190.901 188.358
166.411 190.837 189.716
