ply
format ascii 1.0
comment Created by Open3D
element vertex 2022
property float x
property float y
property float z
end_header
197.05 176.958 198.535
197.517 176.941 232.836
197.218 178.531 217.125
197.504 178.315 232.852
197.634 180.566 117.883
197.893 179.888 216.615
197.523 179.683 232.825
198.63 180.601 244.304
198.392 180.253 246.333
197.834 180.967 101.402
197.03 181.227 139.175
197.191 181.231 216.082
197.953 181.112 232.188
197.071 182.471 123.339
197.617 183.018 153.896
197.162 182.737 216.041
197.286 182.74 250.895
197.206 184.192 105.989
197.233 184.219 107.341
196.876 183.651 124.971
196.888 183.87 127.498
197.317 184.318 156.511
199.412 184.493 154.66
197.907 188.637 111.481
197.012 187.107 175.692
197.064 187.192 176.893
196.987 187.219 178.208
197.255 187.135 253.79
197.177 187.193 255.157
197.783 189.083 106.127
198.242 188.48 181.659
196.849 188.718 251.133
197.13 188.582 252.411
197.159 189.906 256.38
197.344 189.895 294.35
196.965 192.178 124.693
196.774 191.05 251.119
197.082 191.144 253.755
197.195 191.159 255.16
197.174 192.744 211.663
197.072 192.69 212.918
199.13 193.731 89.287
197.048 194.384 179.585
197.96 196.235 90.1034
197.928 195.643 91.3687
197.867 195.738 92.6819
197.374 197.038 91.4658
197.843 197.078 93.3541
197.548 197.428 109.12
198.952 196.889 111.1
197.614 198.384 91.9637
198.126 198.709 108.405
198.262 198.646 110.84
196.821 198.388 219.137
197.099 200.358 65.2305
197.2 199.951 66.8795
197.839 201.193 84.7197
197.518 199.932 108.996
200.816 198.639 111.165
197.305 199.935 122.871
197.068 200.892 136.511
197.419 199.76 145.814
197.114 199.994 157.397
197.038 201.638 62.49
197.025 201.423 63.8014
197.505 201.432 109.016
198.993 201.389 111.054
197.467 201.11 121.043
197.441 203.139 86.4837
197.145 203.126 133.623
197.252 202.904 258.205
197.234 204.766 75.1758
197.383 204.397 86.7409
197.446 208.099 72.7927
197.718 206.171 73.92
197.351 206.074 130.62
197.052 205.769 134.887
197.611 207.44 73.8609
197.485 207.14 110.621
197.098 208.702 76.4664
197.175 210.048 76.6634
199.496 211.032 104.169
197.54 210.239 105.655
197.159 211.816 58.4006
197.087 211.755 91.3145
197.064 212.045 134.988
197.077 212.719 136.154
197.277 212.515 246.216
197.239 211.968 259.66
197.27 211.998 261.012
196.826 213.203 133.684
197.084 213.524 149.521
197.122 213.868 153.608
197.293 213.444 243.652
197.05 214.43 247.836
197.087 213.908 249.166
196.922 212.966 258.421
197.233 214.24 60.8542
197.755 215.033 242.292
197.174 215.188 245.19
197.114 215.055 246.502
197.024 214.509 250.565
197.201 214.477 262.335
197.279 215.753 243.739
197.409 218.723 74.3668
196.792 217.571 109.479
197.101 219.075 144.038
197.963 219.667 181.514
197.672 220.385 74.7771
196.904 220.653 106.34
197.26 220.454 278.51
197.392 221.765 74.6707
197.927 222.486 278.439
197.255 222.01 279.8
197.18 221.964 281.323
197.244 223.216 74.1637
197.122 223.437 131.591
196.981 223.115 176.738
197.284 224.049 201.255
197.474 224.015 203.654
198.555 224.932 247.02
197.225 223.256 279.901
197.207 224.546 75.3794
197.018 224.596 127.784
197.215 225.948 120.126
197.096 226.343 199.053
197.014 226.99 200.432
197.371 226.107 204.254
197.069 226.134 278.481
197.273 227.61 276.88
199.041 231.716 130.239
196.996 229.185 183.904
197.231 229.582 236.754
197.126 231.245 259.161
197.836 230.871 128.395
197.192 231.89 218.883
197.132 234.12 95.6869
198.216 235.068 208.426
197.126 233.573 217.613
197.043 234.812 240.639
196.979 236.176 218.965
197.481 237.469 207.632
197.401 238.032 213.119
197.311 237.719 244.322
196.909 238.112 254.865
197.088 240.511 255.241
197.516 241.78 264.968
197.286 242.108 266.532
199.523 248.402 249.182
197.673 247.469 253.763
197.138 247.864 237.825
197.512 247.994 248.045
198.025 247.858 252.188
197.25 247.891 256.595
197.219 247.845 258.142
197.363 249.198 246.476
197.228 250.85 237.956
197.508 256.955 269.93
198.589 260.106 252.675
197.84 260.454 255.084
197.906 260.206 256.603
197.061 260.827 268.502
196.993 262.268 258.979
197.566 265.339 246.151
198.009 265.341 247.822
199.689 96.8859 130.484
198.922 96.6144 131.818
198.827 97.0893 133.308
198.704 97.0925 134.779
198.729 98.2786 141.977
198.59 100.992 138.2
198.563 102.796 139.139
198.547 104.615 126.249
198.532 105.855 124.881
198.484 105.949 127.649
198.554 105.968 139.21
198.642 105.85 140.574
199.3 107.973 128.101
198.7 107.069 138.057
198.651 107.813 139.371
198.644 107.4 140.623
198.841 113.88 121.041
198.762 113.545 123.109
198.373 114.577 103.052
198.383 114.591 104.328
198.83 115.09 123.541
198.633 116.764 133.197
198.419 114.819 133.462
198.628 116.259 121.092
198.831 123.278 105.515
200.549 124.568 144.361
198.641 123.438 146.201
198.459 126.523 150.702
198.686 127.497 86.9057
198.301 132.418 153.553
199.995 134.064 126.195
198.843 136.354 112.587
200.821 137.808 110.625
199.009 137.581 112.597
198.658 138.022 272.769
198.988 139.092 110.821
199.022 139.76 152.499
200.355 139.321 153.672
199.268 140.211 155.285
198.783 139.391 206.068
199.934 140.743 208.774
199.179 139.12 271.381
201.277 140.672 110.462
198.629 140.776 204.665
198.886 140.614 274.935
201.577 142.811 109.926
198.272 142.458 133.464
198.583 141.933 205.801
198.386 143.443 132.287
198.444 144.118 135.541
199.008 144.95 111.408
198.551 145.199 122.235
198.22 144.524 133.657
199.084 144.796 157.713
198.486 144.794 283.029
198.399 144.739 284.781
198.523 146.162 100.278
198.85 146.429 120.487
199.571 147.08 122.154
198.821 146.653 236.281
198.731 147.478 119.178
198.69 148.066 210.393
198.793 147.902 235.106
198.461 149.427 150.337
198.576 149.323 210.497
199.313 149.332 211.919
198.561 150.977 86.8167
198.574 150.524 210.438
199.232 151.582 256.372
198.437 152.114 150.575
198.578 153.025 260.317
198.26 152.336 262.463
198.474 153.727 136.157
198.353 153.673 137.622
198.411 153.437 149.302
198.866 159.806 137.741
198.329 161.022 92.0794
199.055 161.507 137.186
198.601 162.735 86.87
200.217 165.715 101.094
198.523 165.122 129.062
199.715 168.098 113.747
198.745 166.819 117.339
199.013 166.756 234.491
199.521 166.705 252.419
198.742 167.956 101.319
198.851 168.097 252.39
198.83 168.255 253.711
198.559 172.435 125.698
198.184 171.348 133.312
198.253 172.554 134.748
198.755 170.934 217.37
198.627 172.823 86.3951
198.549 172.667 127.673
198.63 173.748 129.112
198.823 173.541 130.381
198.408 173.149 131.807
198.259 173.073 136.011
199.266 172.863 148.975
198.819 172.82 150.593
198.993 172.906 152.054
198.953 172.808 156.899
200.026 173.872 158.934
198.695 172.542 215.318
198.378 173.666 133.281
199.493 174.717 149.316
198.6 174.783 153.527
198.897 174.619 156.749
198.469 175.74 101.435
198.353 176.033 108.566
198.783 174.955 127.718
199.742 174.951 150.7
198.931 175.295 152.187
198.242 175.661 233.096
198.633 176.733 84.175
198.272 177.115 114.611
198.336 177.172 116.113
198.57 178.381 119.888
199.38 179.891 247.902
199.72 179.451 249.431
199.421 179.821 250.823
199.263 181.24 216.562
199.898 184.316 150.108
200.627 183.392 152.812
199.37 182.559 246.474
198.76 182.781 247.83
198.728 182.66 284.887
198.652 185.471 156.211
198.524 187.345 107.268
199.867 187.345 150.481
198.795 186.85 155.049
198.535 187.165 192.832
198.123 187.136 197.018
199 189.412 112.931
200.125 188.127 153.709
198.627 190.542 253.953
198.589 190.157 256.359
198.685 191.696 210.352
198.698 191.162 255.2
198.564 192.737 211.592
198.84 194.257 87.3462
198.361 196.484 197.383
198.789 197.416 107.6
198.342 197.322 119.258
198.361 197.196 149.057
199.278 198.048 262.039
198.989 197.413 294.064
198.541 198.887 83.8561
198.393 198.856 145.294
198.4 198.621 147.893
198.378 198.733 155.531
198.597 199.88 107.618
198.623 200.295 136.911
199.706 200.537 145.865
198.617 199.975 160.765
198.682 200.841 255.116
198.432 201.357 68.316
198.475 201.307 69.6269
198.452 201.331 71.0306
198.829 201.786 86.6931
198.768 202.854 111.006
201.166 203.035 120.342
199.099 202.818 121.679
198.447 203.403 132.042
198.932 204.55 112.194
198.752 204.828 115.574
199.589 206.065 131.317
198.917 204.704 241.892
200.784 205.718 288.786
198.353 206.085 72.6001
198.364 206.013 75.2539
198.729 205.674 86.9514
198.698 205.897 136.088
201.636 208.291 144.375
198.796 205.885 156.647
198.489 207.409 76.6433
198.468 208.759 76.6895
199.044 208.51 146.261
198.31 210.055 73.8326
198.589 210.152 76.7242
199.42 210.907 250.686
198.753 210.428 269.541
198.809 211.405 113.258
198.976 213.556 246.471
198.503 212.265 260.235
198.732 211.761 262.305
199.488 211.392 271.482
199.718 213.479 102.519
198.371 213.317 136.17
198.307 213.56 149.634
199.056 213.174 247.883
198.834 213.49 249.244
198.661 214.353 101.669
198.762 214.189 103.442
198.541 215.289 243.688
198.469 215.197 245.097
199.198 216.591 124.724
198.302 215.719 136.18
198.672 217.36 236.345
198.644 218.302 279.123
198.377 219 146.604
198.393 218.993 147.874
198.632 218.943 179.95
198.305 220.68 107.503
198.543 221.14 127.501
198.574 220.412 278.503
198.573 221.526 178.234
198.758 224.389 202.75
198.332 223.206 75.1326
198.601 223.074 126.184
198.774 223.314 155.268
198.689 224.023 245.285
199.975 223.81 249.787
198.691 224.777 120.037
198.844 226.301 129.036
201.096 226.388 172.321
198.607 226.014 204.033
199.004 227.36 237.498
200.667 227.665 172.45
198.653 229.159 129.154
201.849 229.494 172.369
199.901 229 174.211
198.703 229.104 236.525
199.544 230.336 172.343
198.768 231.476 259.721
198.892 231.957 95.4522
198.824 232.226 108.624
198.676 233.25 106.049
198.775 233.257 107.26
201.592 236.257 95.9758
200.897 237.961 175.878
198.96 237.896 187.119
199.015 237.393 206.313
201.317 236.311 206.51
198.897 238.842 208.322
198.586 239.056 211.531
198.704 248.08 248.198
198.835 253.083 272.667
198.796 252.169 275.328
198.844 253.747 240.723
198.738 253.673 241.965
198.559 253.449 273.796
199.413 255.666 270.05
199.383 256.523 268.206
198.726 256.666 270.928
198.683 258.509 255.041
198.815 262.448 251.028
200.833 97.0942 131.883
200.85 97.0748 133.252
200.186 96.5084 134.653
199.825 101.282 138.497
201.434 107.818 134.312
199.873 107.268 137.65
199.915 107.187 143.513
200.181 108.511 126.483
199.755 108.696 140.493
200.188 115.092 121.014
200.905 114.473 123.948
200.168 114.694 94.2471
200.202 117.242 134.419
200.19 115.983 95.5457
199.896 116.65 132.242
199.971 117.445 136.687
200.174 117.043 124.532
200.338 122.087 108.802
200.033 123.466 146.151
199.803 124.303 104.347
200.394 126.464 89.7766
200.068 127.741 88.4497
202.316 127.53 90.0554
200.394 130.723 126.077
200.428 132.195 128.733
200.159 132.145 256.681
200.007 137.798 273.933
201.289 139.252 110.507
200.174 140.069 204.721
200.175 139.465 205.97
200.206 139.28 249.461
200.298 139.234 250.782
199.999 139.185 273.892
201.483 142.032 91.6212
200.388 140.426 151.025
200.411 141.699 152.472
200.029 141.867 205.9
200.11 141.79 207.31
199.867 143.371 158.02
199.923 143.207 208.943
200.506 144.652 91.5996
202.108 144.951 110.493
200.18 145.156 119.106
199.997 145.278 121.683
201.82 146.629 110.339
200.184 146.782 119.645
199.9 146.543 147.773
200.804 147.477 236.596
199.695 148.103 149.087
200.322 149.467 85.4246
200.052 149.115 120.379
199.944 149.177 125.004
200.13 149.228 235.011
199.636 150.745 149.294
199.827 151.481 254.583
200.133 152.649 121.598
201.969 153.865 84.4492
202.212 156.06 114.42
200.807 155.238 117.428
200.707 155.129 118.932
200.789 154.638 120.922
200.124 153.928 122.878
200.089 154.438 260.923
200.324 154.962 259.729
200.394 156.497 83.9627
200.522 159.574 140.497
202.985 162.577 102.633
202.914 160.98 105.252
200.585 160.837 111.548
202.602 161.367 136.824
200.326 160.978 139.005
199.959 162.088 92.6312
200.221 162.537 126.182
199.793 163.855 128.861
200.417 162.149 135.274
200.247 162.039 140.305
199.903 166.229 115.779
200.888 166.669 104.011
200.2 166.763 156.538
200.2 168.115 156.622
200.196 168.237 158.007
200.292 168.204 219.02
199.904 169.416 115.734
200.152 169.531 158.095
200.137 169.663 219.059
200.22 170.458 114.534
199.972 172.516 125.724
199.876 171.422 130.514
200.973 171.309 147.921
200.826 171.35 149.203
200.244 171.284 159.316
200.415 170.975 223.243
200.366 173.459 127.677
199.884 173.278 128.977
199.698 172.609 131.844
199.625 172.699 133.058
200.445 172.777 146.815
200.252 172.689 153.581
201.017 172.112 279.871
199.85 174.122 85.5722
200.507 175.017 147.414
200.076 174.746 151.981
199.836 175.641 94.5776
199.711 175.675 99.8497
199.732 176.926 94.407
199.832 176.909 101.39
200.127 176.717 153.595
200.302 177.231 250.926
199.839 178.137 94.4662
200.256 178.289 128.977
200.209 178.534 250.764
200.016 179.963 216.052
199.78 179.608 251.963
199.83 181.202 246.406
199.948 181.099 247.881
200.004 181.028 249.378
199.981 182.551 216.024
200.044 184.307 156.216
200.169 184.026 248.026
200.139 184.064 249.313
200.987 185.525 150.894
200.925 185.519 152.22
199.916 187.483 115.968
201.101 187.424 151.742
200.159 186.832 153.555
200.384 186.846 159.329
199.91 188.576 114.596
200.049 188.217 155.043
200.168 188.329 156.486
200.926 188.357 157.966
200.976 188.916 187.052
200.142 190.127 210.957
200.102 190.69 255.184
199.92 191.112 110.159
200.036 191.362 192.76
200.082 191.468 210.443
199.996 195.542 87.1701
200.028 195.409 88.4729
199.85 195.792 158.25
199.725 196.786 90.0222
199.729 197.011 91.298
200.905 197.113 113.327
201.232 197.279 137.072
199.961 198.052 156.92
199.865 197.339 160.633
200.174 197.302 294.232
200.795 198.629 136.808
200.477 199.26 159.716
200.102 199.701 254.259
199.957 198.576 293.088
199.882 200.245 84.0493
200.159 199.974 136.517
200.985 200.188 147.784
200.78 199.955 158.148
199.999 201.362 109.237
199.91 202.807 86.7009
200.133 203.033 147.523
200.912 203.185 289.809
199.934 204.629 133.281
200.024 204.408 239.739
200.244 204.377 261.181
200.879 204.526 262.346
200.023 205.348 84.4762
200.265 205.753 95.5933
199.781 206.045 113.636
201.543 205.964 121.189
200.102 205.961 129.505
200.004 205.829 133.14
200.02 207.511 110.626
199.904 207.484 115.628
200.379 207.25 120.423
200.266 207.316 147.458
200.44 207.243 233.321
199.838 208.795 75.6154
200.214 208.799 78.0371
201.04 208.88 140.982
200.042 210.135 76.8443
200.298 210.586 253.605
200.148 210.997 264.643
200.096 210.337 266.803
200.131 210.934 268.307
200.102 210.932 269.645
200.113 211.056 272.52
200.122 211.714 63.8468
200.406 211.453 143.474
201.041 213.762 64.3675
199.868 213.08 245.316
200.064 214.444 62.5315
200.655 216.849 74.6625
199.912 216.059 126.092
200.066 215.988 127.418
199.93 215.886 243.62
200.208 216.135 278.439
199.788 217.87 146.725
200.028 217.583 279.071
199.917 218.916 278.518
199.857 220.139 147.759
200.277 222.78 203.215
200.089 223.308 156.504
200.197 223.416 243.745
200.135 223.425 245.127
200.124 223.433 246.533
201.072 223.326 247.885
200.143 225.58 137.796
201.192 225.088 171.851
200.179 224.701 200.525
200.057 225.303 202.327
200.361 224.821 205.309
201.744 227.594 90.0387
199.947 226.541 92.381
200.866 226.327 136.356
200.333 226.195 156.418
200.101 226.279 175.089
201.968 227.053 237.265
200.235 227.551 87.1138
200.157 227.613 237.76
200.124 228.956 236.491
201.692 231.804 92.8426
199.87 230.787 129.403
200.084 231.021 133.038
200.218 231.946 95.5232
200.58 232.464 107.222
200.244 233.547 174.088
200.334 233.664 204.743
199.93 233.755 210.16
200.204 233.403 217.634
200.022 235.757 207.952
201.313 237.909 99.5838
200.265 237.826 187.542
200.131 236.437 265.286
201.229 238.809 206.734
199.951 239.029 210.086
200.307 242.072 184.342
200.292 242.106 185.6
199.944 250.321 247.793
200.058 251.004 274.168
200.003 252.431 241.434
200.162 252.763 273.105
200.054 253.802 240.891
200.255 255.076 240.687
200.165 259.964 269.198
200.018 263.36 249.64
199.984 263.253 251.614
201.469 97.1211 128.237
201.517 97.1029 130.466
202.374 96.2636 134.725
201.633 95.8196 136.294
202.228 95.753 137.802
202.57 95.3579 139.163
203.427 97.3038 145.742
201.449 107.224 136.111
201.635 108.609 128.908
201.691 114.261 120.366
201.762 111.998 120.45
201.62 112.017 121.906
201.625 112.063 123.631
203.5 112.163 143.842
201.697 113.301 121.869
201.585 114.762 94.1711
201.5 114.541 123.723
201.318 114.896 132.11
202.465 115.684 92.8269
201.458 116.028 95.5275
201.262 116.258 135.422
201.614 117.443 91.5943
201.652 117.441 94.0428
201.275 116.952 123.385
201.316 117.298 132.123
201.311 117.663 137.414
201.253 118.677 136.222
201.619 122.592 110.122
201.736 122.117 111.539
201.721 123.132 108.767
201.889 123.055 113.089
201.391 130.287 101.417
201.652 130.686 123.368
202.709 131.319 124.386
202.356 132.026 126.182
202.565 132.038 127.872
201.732 132.028 253.706
201.611 132.155 256.844
201.818 133.184 124.992
201.449 133.18 257.985
201.251 134.965 111.365
201.272 136.526 110.243
201.232 136.644 112.54
201.753 136.168 268.959
202.811 138.547 151.651
201.434 137.687 250.831
201.268 139.532 157.116
201.596 140.405 205.197
201.401 140.133 207.228
201.348 140.964 94.0077
201.42 140.56 155.105
201.443 140.513 249.351
201.25 140.368 250.599
201.667 141.603 151.751
201.314 141.897 156.683
201.791 144.988 90.1656
201.58 146.413 120.336
202.189 146.406 90.4647
201.682 147.822 98.4118
201.562 150.881 85.6681
201.689 150.569 105.994
201.582 155.818 259.659
201.548 155.828 260.939
201.737 155.21 264.111
203.678 155.963 264.728
202.247 155.382 266.642
202.393 156.484 85.2439
201.73 156.623 111.936
201.726 156.981 265.859
201.887 158.049 82.6967
201.806 157.612 115.752
201.779 157.686 117.261
201.728 159.049 140.485
201.563 157.792 266.709
201.798 159.322 82.7615
202.725 161.664 107.214
202.999 159.837 112.605
201.94 159.18 114.212
201.704 160.885 139.078
202.467 162.035 108.726
202.654 162.428 110.153
202.941 160.886 111.61
203.261 160.915 124.782
202.006 161.53 140.274
201.727 160.7 141.701
201.519 163.125 127.533
202.016 163.878 102.118
201.621 163.683 126.191
201.691 165.55 234.678
201.276 166.776 155.224
203.276 165.66 235.104
201.606 166.862 236.049
201.349 167.796 100.064
204.217 168.245 145.647
201.458 168.116 217.671
201.64 168.296 220.44
203.411 169.594 222.811
201.296 167.845 235.095
201.618 168.099 276.286
201.264 169.453 113.96
201.745 169.945 147.574
201.724 170.376 223.265
201.655 169.774 224.585
201.574 170.421 270.393
201.522 171.261 126.108
202.755 170.921 145.665
201.445 171.251 155.214
202.238 171.09 268.313
201.472 172.268 124.939
201.174 172.767 130.252
201.524 172.671 147.208
201.739 172.351 221.911
201.742 172.682 294.408
201.288 173.819 128.939
201.642 174.124 266.743
202.287 173.957 293.553
202.115 175.893 147.446
202.112 175.989 149.328
202.086 175.983 150.656
201.421 176.01 151.964
202.53 175.93 229.209
201.9 175.283 265.713
201.769 175.569 268.017
199.973 176.901 95.8925
201.562 181.494 215.377
202.493 180.879 206.551
201.85 181.197 223.5
201.617 184.101 150.161
201.501 184.204 248.517
201.871 184.409 148.441
201.525 184.126 295.699
201.343 185.593 156.478
201.752 186.438 160.962
201.888 185.766 223.34
202.013 187.863 100.097
201.323 186.983 155.032
201.486 187.086 158.026
202.209 187.128 221.803
201.751 188.187 149.607
202.421 188.352 160.191
201.694 188.459 221.798
202.06 190.467 221.259
201.338 190.069 255.241
201.278 191.304 223.222
201.891 192.623 123.028
201.299 194.608 111.47
203.526 195.114 134.951
202.821 195.267 136.819
203.411 195.219 133.578
203.045 197.167 138.711
201.506 197.214 294.161
201.672 197.059 135.12
203.631 198.506 139.903
201.764 197.435 266.823
201.474 198.772 255.113
201.285 199.985 109.155
201.292 201.262 159.201
201.383 203.146 122.956
202.206 203.022 273.322
202.842 204.582 92.2078
203.452 205.043 94.2565
202.652 204.968 95.5554
201.776 204.982 96.8397
201.435 204.435 122.939
201.355 204.573 240.734
201.723 206.092 232.763
202.33 205.898 261.823
201.752 206.032 263.656
201.615 206.968 91.3647
201.733 206.981 95.4935
201.604 207.944 147.498
201.578 207.464 155.277
203.783 208.807 231.911
201.685 207.355 233.237
201.661 207.278 262.488
202.393 209.234 131.888
201.65 208.892 262.517
201.548 209.519 263.955
201.519 209.534 265.276
201.581 208.92 266.766
201.573 209.614 268.289
201.843 209.982 144.83
201.735 210.098 146.026
201.595 210.94 255.241
202.132 211.088 256.583
201.745 210.122 259.536
201.488 210.134 269.567
201.975 211.824 64.7179
201.23 211.334 266.799
201.246 211.386 271.319
201.936 212.915 143.575
201.464 214.34 62.7052
202.378 214.384 66.4861
201.483 215.207 136.117
201.463 215.963 113.482
201.613 216.771 179.674
201.624 215.995 242.168
201.43 216.03 278.37
202.468 223.204 204.024
202.466 222.081 245.113
202.42 222.053 246.488
201.542 224.19 200.447
201.427 223.416 243.655
201.51 225.543 137.677
201.49 224.75 201.765
201.635 225.302 203.614
201.642 226.483 213.337
201.53 226.493 217.308
202.624 226.969 275.124
201.534 228.032 92.3601
202.113 227.495 153.677
202.521 227.351 203.839
203.116 228.178 214.584
201.317 229.4 131.351
201.515 228.942 236.498
202.018 230.444 91.7465
201.598 230.712 93.9371
201.336 230.475 133.244
202.357 232.112 195.79
201.63 232.14 205.864
201.604 231.994 218.793
201.463 232.03 269.761
203.143 233.518 196.406
201.695 233.614 204.362
201.595 233.247 217.638
201.316 234.777 175.48
201.752 234.8 194.516
204.079 234.923 196.536
203.463 236.409 196.507
201.461 237.863 187.616
201.863 238.412 194.462
201.312 238.991 208.627
201.804 240.591 185.577
203.147 244.509 235.631
202.642 246.667 232.496
201.737 251.047 272.826
201.631 252.894 273.298
201.454 253.85 240.873
202.429 259.117 241.654
201.758 258.176 242.092
202.241 259.987 268.854
201.761 260.714 241.247
202.5 261.172 242.956
201.532 263.142 250.812
203.287 94.5676 142.178
202.863 96.9581 129.532
202.907 95.9471 131.92
202.879 96.454 133.356
202.871 96.9865 137.811
202.909 97.0531 139.179
203.715 96.9864 143.776
202.924 98.2597 127.947
202.882 98.2538 131.698
203.965 106.842 129.186
203.011 107.992 134.763
202.988 108.547 126.431
203.041 108.548 127.719
202.973 108.452 129.076
203.017 108.545 130.354
203.043 108.553 133.498
203.164 109.903 139.281
203.207 110.382 144.253
204.209 112.534 118.871
202.894 111.834 123.076
202.974 114.4 121.144
202.797 114.666 94.0954
203.082 114.662 103.071
203.59 114.813 122.867
203.425 122.771 113.083
203.872 122.19 114.467
203.124 123.115 111.623
203.108 132.657 253.8
204.155 132.581 255.212
203.073 132.719 256.621
203.09 133.41 252.439
203.232 134.72 98.8846
203.763 134.992 265.48
203.974 135.569 267.264
203.061 135.535 268.236
202.915 134.932 269.645
202.543 136.539 110.673
203.01 137.98 153.26
202.824 140.668 155.834
202.957 140.503 204.855
205.328 140.226 127.726
202.791 140.813 157.626
202.88 140.652 207.209
202.834 142.177 93.8525
205.27 142.828 128.097
202.891 141.642 152.236
202.724 141.83 208.576
203.345 142.334 278.21
202.843 143.48 92.6514
203.131 143.75 119.601
202.778 145.167 91.572
203.795 144.785 119.437
203.358 144.775 279.595
202.909 146.87 120.047
202.572 147.911 213.08
202.548 147.909 236.439
204.147 150.412 106.66
203.111 152.159 107.059
203.149 153.655 126.872
203.105 154.347 250.868
203.148 155.387 93.1855
205.472 156.751 94.8501
203.68 156.296 115.876
203.053 155.855 117.193
203.025 156.495 83.4459
202.812 156.598 268.18
202.904 157.871 83.8818
203.025 158.258 111.99
203.253 158.239 126.124
203.941 159.092 140.298
202.931 157.908 265.37
203.153 158.111 288.732
202.969 159.797 110.438
203.076 159.135 115.822
202.955 160.803 139.058
203.624 159.961 142.469
202.971 161.958 103.114
202.934 160.854 114.119
203.648 162.188 111.466
202.965 163.55 105.706
202.799 163.342 124.89
202.972 164.807 105.648
205.408 165.326 145.764
202.885 168.451 220.551
203.057 171.027 220.393
203.055 172.246 293.8
203.087 172.553 114.475
204.317 172.414 145.957
203.218 172.398 199.856
202.957 172.262 223.251
202.887 173.965 146.603
203.005 173.917 291.722
202.637 175.518 151.908
203.029 175.534 223.352
203.118 176.244 230.499
203.06 175.51 267.423
202.914 175.337 293.118
203.184 179.854 134.746
202.96 180.051 215.876
203.093 181.105 131.949
202.934 181.986 214.563
202.957 184.382 150.183
202.704 184.644 152.775
202.919 184.13 135.031
203.147 185.009 148.171
202.72 184.432 248.183
205.212 187.32 99.4422
203.324 185.923 101.252
203.263 186.202 146.844
203.048 185.666 162.237
203.726 186.944 246.792
203.026 185.762 276.913
203.338 187.34 102.731
203.055 187.972 112.288
203.41 187.224 126.402
204.174 187.275 128.259
203.024 186.836 150.093
202.991 187.134 159.613
203.028 187.02 162.211
203.72 187.533 219.56
204.866 188.616 102.537
203.108 188.374 114.437
203.265 188.133 148.207
203.108 188.069 149.439
202.887 188.037 150.653
202.631 188.053 151.875
203.034 188.138 277.033
203.439 190.111 104.112
203.372 189.646 127.464
204.158 191.466 101.033
203.976 192.441 103.864
203.063 191.472 121.925
203.224 192.863 122.038
203.151 194.391 134.947
204.687 194.92 123.191
203.385 194.288 124.456
203.16 195.654 132.144
203.051 196.431 257.971
203.033 195.85 266.95
202.6 197.37 114.206
203.12 197.167 129.043
202.863 197.185 294.168
202.691 199.936 110.413
203.166 199.938 141.79
202.812 201.507 273.232
203.142 203.183 98.3234
203.121 203.072 234.897
203.19 204.608 66.6923
203.272 204.735 67.9457
202.749 204.565 90.2225
202.964 204.556 96.9569
203.125 204.396 272.628
203.089 204.282 273.97
205.638 205.722 69.1608
204.993 206.435 98.0783
202.851 206.928 91.3955
203.2 207.015 96.9492
202.672 207.761 144.992
203.074 207.575 155.125
202.759 207.125 287.769
204.715 210.038 81.7231
202.881 209.019 141.139
202.956 208.93 144.881
203.053 208.85 146.146
203.117 208.652 156.772
203.135 209.919 147.398
202.969 210.1 259.558
202.802 210.013 260.948
202.999 210.164 266.828
202.97 210.092 268.266
202.933 210.127 269.613
203.258 211.498 79.8393
202.808 211.809 103.897
202.85 211.733 105.689
204.451 211.424 142.458
203.853 210.711 145.074
202.917 211.589 255.235
202.767 213.204 62.6621
202.892 213.712 65.1707
203.13 212.804 144.774
203.765 213.72 64.3663
203.092 214.385 143.603
203.207 215.071 179.775
203.067 214.708 242.779
202.915 214.6 278.249
202.821 216.238 178.544
202.974 216.131 181.252
202.834 217.252 179.73
203.818 220.308 184.175
202.818 224.731 201.776
202.991 224.835 279.899
202.843 225.814 200.377
202.82 225.928 203.064
202.987 225.873 205.515
203.086 226.344 276.81
203.214 227.72 172.351
202.869 228.369 217.174
203.039 230.834 196.41
202.929 230.625 237.589
203.009 232.351 204.718
203.023 232.383 207.369
202.883 232.11 217.664
203.082 233.651 207.217
203.15 233.479 208.422
202.884 236.682 98.3635
204.502 238.514 174.506
203.225 238.167 194.109
204.121 238.204 196.332
203.103 237.748 243.802
203.199 239.127 196.984
203.017 240.66 184.28
203.157 240.586 197.027
203.082 245.247 233.589
203.048 244.992 236.2
203.144 246.491 236.281
202.726 247.66 233.357
203.068 251.038 272.808
203.082 252.929 273.334
203.209 254.063 239.536
202.942 258.161 243.398
203.566 263.187 249.95
204.418 95.8465 131.958
204.126 95.4518 140.857
204.223 95.6315 142.268
204.413 96.9044 133.254
204.155 96.919 142.438
204.203 98.2595 143.856
204.438 107.439 126.582
204.388 108.004 134.094
204.49 108.151 142.022
204.704 109.604 143.965
204.226 110.612 121.574
204.391 111.968 122.971
204.416 113.239 122.908
204.338 114.772 92.741
204.56 114.404 100.14
205.317 115.267 104.856
204.47 115.909 91.5541
206.478 115.058 102.197
205.537 122.653 116.28
205.777 124.247 127.019
204.417 130.47 119.156
204.316 132.061 128.918
204.387 132.099 256.616
204.505 133.822 99.9905
204.45 133.308 252.328
205.221 132.854 253.76
204.566 135.595 249.429
204.544 136.227 98.7758
205.484 138.971 149.493
204.504 137.11 274.222
204.504 137.812 98.9236
204.563 137.729 276.861
204.468 139.061 98.9139
204.125 139.217 153.476
204.187 140.413 206.212
204.581 139.378 277.078
204.294 140.765 120.377
204.284 140.697 204.59
205.223 141.067 277.168
204.342 142.124 120.292
204.728 142.331 279.604
204.037 143.581 92.8168
204.463 143.19 277.333
206.989 144.267 128.439
205.493 144.965 204.997
205.162 145.414 279.407
204.749 144.925 281.015
204.471 147.078 119.26
204.628 146.471 205.937
205.982 147.76 136.964
204.311 150.624 240.763
204.652 150.62 281.711
204.523 152.206 106.089
204.591 152.333 282.8
204.934 153.518 106.107
204.6 153.69 282.852
204.378 155.082 127.608
204.412 155.155 128.887
204.694 156.313 251.008
204.133 157.232 266.445
204.241 156.553 288.443
204.261 158.234 124.989
204.286 159.154 136.586
204.513 158.33 143.307
204.777 157.891 252.445
205.054 157.911 264.501
204.652 158.972 95.4824
204.027 159.41 108.572
204.243 159.522 139.209
204.54 160.306 272.623
204.505 161.092 138.969
205.618 162.756 146.717
204.463 162.539 156.653
204.476 162.388 269.751
204.496 162.33 271.048
204.361 163.577 112.671
205.415 164.106 145.997
204.697 163.824 157.91
204.746 165.542 243.509
205.551 167.037 244.011
204.743 171.502 199.099
204.117 169.763 220.69
204.866 171.173 108.905
205.207 171.266 110.099
204.304 170.961 146.307
205.007 171.346 197.401
204.832 171.863 292.678
204.578 172.372 121.793
204.606 173.934 107.258
204.308 173.844 146.523
204.546 173.662 199.734
203.988 175.358 147.889
204.298 178.663 133.126
205.61 179.945 103.852
204.401 179.886 105.772
204.425 179.564 130.563
204.377 179.721 131.965
205.151 182.415 108.893
205.684 182.241 110.209
204.299 181.004 133.487
204.841 182.581 107.501
205.975 183.514 112.392
205.924 183.191 114.385
204.819 182.911 115.642
204.703 183.305 148.181
204.225 184.667 151.382
204.623 184.443 101.387
204.722 183.912 110.294
204.495 185.312 147.29
204.437 185.023 149.414
204.439 184.324 161.254
204.428 185.587 162.299
204.6 187.164 100.081
206.319 187.32 101.639
205.499 187.358 113.855
204.614 187.457 147.486
204.439 187.655 149.653
204.409 187.052 162.287
204.329 188.342 111.956
204.305 188.366 126.513
204.355 188.33 160.355
205.294 189.895 101.59
205.335 189.996 102.838
204.717 190.152 105.463
204.114 189.592 217.855
204.334 191.478 191.381
204.37 192.493 100.255
204.432 193.069 122.487
204.313 192.77 191.383
204.236 194.648 137.435
204.371 195.736 130.401
204.896 196.965 92.925
204.342 197.121 256.508
204.343 197.116 266.733
204.328 203.35 95.6891
204.366 203.156 97.0227
204.892 205.16 66.8307
205.001 205.606 95.7089
204.345 204.627 98.3634
204.538 205.879 65.5688
204.365 205.849 89.9225
205.211 205.507 97.0792
205.647 206.363 155.93
204.62 207.381 66.8565
206.085 207.397 69.2517
206.46 207.502 78.1306
204.235 207.04 92.797
205.101 207.999 153.915
204.66 208.436 157.366
204.456 207.512 258.141
204.644 208.844 66.8492
206.073 208.763 69.2673
205.223 208.818 79.7294
204.515 209.549 146.164
204.675 208.772 152.705
206.856 210.091 154.72
204.456 208.773 258.242
204.407 208.87 259.482
204.608 208.998 268.281
204.535 210.209 65.5789
205.128 210.222 66.8609
205.83 210.066 69.4768
204.671 210.132 78.4829
205.152 210.687 79.8434
204.713 210.331 159.181
204.125 211.847 64.1433
205.099 211.441 66.7629
204.684 211.301 67.9345
204.629 211.503 70.8524
205.028 211.29 78.5614
204.416 213.121 278.448
204.468 213.759 279.93
205.122 213.141 281.234
204.739 214.848 107.25
204.372 214.701 243.518
204.929 216.057 107.134
204.594 216.185 244.257
204.802 217.41 105.849
205.161 218.228 245.042
204.571 217.792 275.637
206.455 219.962 121.149
205.095 219.393 275.954
204.607 220.462 185.46
204.51 221.761 184.168
204.33 221.93 205.686
204.16 221.603 243.425
206.165 223.302 138.966
204.571 223.266 176.932
204.645 223.263 188.523
204.294 224.011 203.751
203.995 226.396 172.679
204.437 226.168 175.462
204.275 225.963 201.805
204.6 227.68 115.945
204.263 227.631 276.829
204.507 228.999 114.646
204.363 232.189 196.521
204.503 232.394 204.708
204.244 232.27 207.405
204.356 234.569 205.227
204.391 233.564 208.52
204.195 234.832 207.216
204.464 234.876 208.476
204.406 234.916 245.007
204.177 236.687 176.54
204.459 237.781 193.861
204.452 236.185 208.568
204.997 240.866 255.96
204.535 240.363 194.543
204.573 240.525 197.09
204.619 240.783 253.99
204.431 240.72 257.9
204.598 242.167 253.825
204.519 246.41 187.077
204.505 251.075 273.348
204.907 253.095 273.391
204.383 255.125 240.596
205.007 255.81 244.227
205.31 259.697 265.056
204.641 259.642 264.031
205.716 263.115 247.287
204.48 263.025 251.145
204.682 263.45 245.104
206.02 95.9488 127.896
206.02 95.8599 129.106
205.919 95.8531 131.942
205.927 97.0748 133.191
206.054 98.5442 147.292
206.055 98.3864 127.924
206.099 98.5494 129.158
206.189 99.0101 130.489
206.069 98.5745 131.799
206.098 98.3316 133.048
205.833 106.448 128.725
205.893 106.092 130.342
205.817 107.957 141.015
205.656 108.502 127.636
205.75 111.293 144.28
205.674 111.866 119.039
205.766 113.371 120.088
207.236 112.912 120.524
206.368 111.682 140.655
205.907 113.297 100.173
205.979 113.434 102.05
205.717 113.949 122.511
206.234 122.112 118.493
206.771 124.794 128.93
206.078 129.228 142.175
206.572 128.874 144.497
206.052 130.483 142.195
206.458 130.452 143.937
205.714 134.876 98.8213
205.757 136.211 98.7633
205.518 136.728 150.478
205.925 136.41 248.021
205.884 136.432 275.465
206.116 137.678 246.65
205.67 137.553 249.088
205.922 137.792 259.471
205.782 137.605 274.069
205.479 139.238 151.784
205.998 139.881 247.821
205.937 140.511 246.571
205.889 142.296 120.129
205.772 142.095 204.608
205.932 144.377 119.54
205.69 143.485 278.609
205.719 143.603 279.862
205.887 146.354 119.527
206.116 146.107 127.808
205.911 147.602 119.51
205.829 147.92 205.916
205.931 149.371 117.569
205.903 148.884 119.915
206.526 149.14 137.841
206.16 150.817 127.679
206.08 152.532 104.63
207.606 154.714 105.187
205.878 153.612 127.724
205.952 154.145 283.261
205.823 156.617 95.5888
205.974 154.959 284.078
206.771 157.355 253.102
206.097 159.253 93.6287
205.538 159.572 137.225
205.974 159.541 242.301
205.983 159.193 253.138
206.363 160.371 274.08
206.134 160.645 94.6974
206.718 160.404 275.514
205.9 162.502 156.708
206.039 162.225 272.412
205.863 163.781 101.665
205.903 164.046 157.802
205.944 165.033 101.574
206.838 165.811 155.513
206.672 169.184 144.772
206.063 168.13 157.849
205.877 168.186 242.399
206.248 168.424 292.631
205.945 169.597 252.327
205.748 171.002 147.608
206.624 171.078 249.362
206.07 170.993 250.677
208.19 175.453 99.0994
205.894 172.644 109.633
206.268 174.118 111.838
206.339 174.266 109.042
206.562 174.541 110.346
206.865 175.543 219.575
206.106 176.972 101.446
206.558 176.599 111.873
206.727 176.869 219.042
206.28 178.426 217.503
205.927 180.052 214.774
206.528 181.172 103.148
205.738 181.565 107.542
206.057 181.243 214.662
206.017 181.337 220.303
206.016 183.929 148.351
205.792 183.099 150.517
205.965 182.463 214.738
205.608 184.418 151.887
205.942 185.529 112.53
205.914 185.636 114.426
205.946 185.665 146.856
205.911 185.648 148.676
205.699 185.659 150.527
205.795 186.778 111.93
205.893 186.839 115.733
205.803 187.63 128.853
205.926 187.49 147.47
205.906 187.429 149.798
206.087 187.049 259.55
207.188 191.184 104.367
206.395 191.109 101.806
205.899 191.279 103.03
206.22 191.349 105.426
207.028 195.14 91.9927
206.402 193.072 103.88
205.725 192.832 121.95
206.967 195.825 90.0895
206.211 194.582 93.9489
206.01 194.028 105.553
208.1 195.683 94.4672
205.728 195.57 125.875
206.079 197.635 94.9169
205.948 196.683 122.103
205.869 197.294 265.425
205.815 198.764 141.79
205.714 199.985 141.177
205.572 204.522 251.13
205.638 205.846 252.319
205.827 207.586 82.4226
205.713 207.735 145.156
205.947 207.771 146.571
207.576 208.72 148.27
207.683 208.021 150.639
206.094 207.546 152.502
205.889 207.633 155.173
206.758 210.424 157.864
205.551 209.035 142.384
205.485 208.964 143.639
205.812 209.539 146.48
206.564 208.94 156.562
205.62 209.875 77.2978
205.646 210.888 144.982
206.062 210.701 147.751
206.641 210.156 156.558
205.868 211.488 70.796
205.559 211.546 143.634
207.086 215.367 106.3
205.643 213.295 128.926
206.059 214.767 103.369
205.865 214.433 127.783
206.801 215.113 132.227
205.938 214.68 245.155
206.643 216.519 105.876
205.802 216.157 243.795
206.215 217.259 103.298
205.834 217.858 119.066
206.699 220.02 152.352
206.461 218.298 155.666
206.814 220.637 118.843
205.849 219.072 276.889
206.423 219.592 280.369
207.113 221.976 141.572
206.486 220.773 155.072
206.078 220.39 175.561
205.945 220.486 242.16
205.71 220.171 243.325
205.951 221.807 130.489
205.861 221.713 175.501
206.159 221.973 189.736
205.661 221.585 281.079
205.957 223.305 175.548
207.382 223.529 187.116
206.091 223.405 189.715
205.648 223.404 203.39
206.024 224.543 140.521
206.034 224.602 141.928
206.744 224.062 143.245
205.85 224.563 176.657
206.017 224.926 184.383
207.35 224.83 187.372
206.064 224.792 189.684
205.814 224.467 204.346
205.766 226.016 109.157
206.051 225.769 140.669
206.992 226.249 185.02
206.685 226.125 187.589
205.856 226.005 203.059
206.89 226.456 110.678
206.495 227.667 185.695
206.295 227.978 196.884
206.097 229.203 196.971
206.025 230.62 197.026
205.907 232.046 197.015
205.9 232.212 204.654
205.798 233.537 197
205.841 234.521 205.179
205.965 233.581 208.602
205.907 234.851 208.586
205.698 236.596 175.294
205.789 236.431 196.946
205.809 236.069 208.612
205.65 237.935 194.486
206.536 239.524 197.136
206.329 241.861 198.218
205.794 242.035 253.896
206.032 245.137 187.026
206.11 256.835 263.927
206.06 258.036 260.994
206.062 260.877 255.197
206.039 261.024 258.147
206.046 261.008 259.418
205.825 263.753 249.408
205.822 263.77 250.806
208.313 98.0044 129.854
207.289 95.9258 131.825
207.269 97.1124 133.203
207.229 98.597 147.135
207.536 99.8101 133.201
207.34 106.484 129.39
207.312 110.387 141.944
207 110.512 144.659
207.219 113.253 100.245
207.456 113.06 133.531
207.289 113.011 141.392
207.152 114.769 104.336
207.236 114.308 121.656
207.588 114.348 134.91
207.437 123.481 116.507
207.412 122.042 118.711
207.493 125.052 126.801
207.042 127.85 142.146
206.953 127.838 143.572
207.234 129.687 101.276
207.219 134.926 99.9085
207.537 134.707 119.944
206.923 136.585 148.988
207.32 137.873 247.769
207.231 137.871 259.45
207.18 140.199 127.042
207.297 139.165 247.304
207.48 141.596 103.727
207.351 140.953 130.081
207.281 140.595 246.675
207.313 142.38 119.48
207.26 142.119 126.772
207.214 142.172 129.475
207.86 142.149 247.517
207.919 143.682 119.442
207.914 144.989 119.468
208.274 146.329 119.284
207.478 146.059 126.523
207.234 145.993 128.787
207.213 147.618 119.443
207.247 148.024 139.039
207.344 149.385 127.762
207.488 149.29 245.248
208.173 150.888 128.227
207.582 152.658 103.193
207.868 152.217 128.525
207.492 152.22 148.193
207.729 152.346 149.46
208.355 153.417 150.01
207.614 153.119 152.193
207.875 153.601 130.392
207.595 153.495 148.244
208.369 154.035 153.748
207.372 154.604 282.267
207.548 155.071 101.728
207.319 154.94 129.223
207.633 154.779 150.845
207.571 155.015 152.407
207.593 156.841 204.475
207.955 160.138 93.5867
208.367 160.444 120.148
207.238 159.497 276.837
207.47 161.15 271.359
208.112 162.116 94.2766
207.625 162.203 120.501
207.295 162.445 147.62
207.894 164.535 101.899
207.577 164.736 110.319
207.229 164.234 157.73
209.318 167.347 155.154
207.9 166.741 244.312
207.573 165.266 263.867
207.102 166.926 143.876
208.407 167.652 292.091
210.008 169.528 119.903
207.64 168.049 152.711
207.655 167.977 155.142
207.401 167.879 157.673
207.593 169.255 155.174
207.444 174.036 276.867
207.036 175.191 112.872
207.035 175.15 197.37
207.805 176.948 220.424
207.343 176.977 221.841
207.037 178.019 223.506
207.473 176.672 249.453
207.13 178.235 102.819
207.303 178.245 218.793
207.485 178.167 222.074
208.169 180.255 123.695
207.266 179.884 216.064
207.327 179.657 217.472
207.145 179.672 223.347
207.143 181.517 113.021
208.087 181.183 124.581
207.891 181.363 216.042
207.067 182.852 115.834
207.167 182.654 126.063
207.369 184.385 148.453
207.247 182.895 215.739
207.554 186.962 119.095
207.314 187.043 128.882
207.36 187.47 147.461
207.341 187.459 149.771
207.471 187.057 271.058
207.733 189.067 102.367
207.483 188.376 127.83
207.346 190.892 105.617
207.641 191.219 103.174
208.72 192.414 106.769
207.982 192.552 108.749
208.828 192.878 110.259
206.941 192.339 102.009
207.801 195.192 114.024
208.242 195.274 168.733
207.228 195.547 88.6726
207.55 195.844 167.034
207.595 197.275 166.985
208.094 197.146 168.523
207.044 198.847 140.862
208.155 198.449 167.849
207.606 200.706 232.598
208.54 201.401 104.466
207.455 201.706 107.346
207.459 203.053 103.13
207.972 204.556 112.928
207.623 204.139 137.921
208.032 206.037 114.372
209.636 206.344 113.004
207.355 207.545 152.206
207.042 209.653 81.9216
206.971 209.002 145.335
206.947 210.045 79.8354
206.801 210.512 143.828
207.1 210.126 146.678
206.922 211.279 68.3855
207.015 211.279 69.6443
207.45 211.888 104.466
206.974 211.634 145.006
207.353 211.286 149.272
208.886 216.831 235.465
209.226 215.94 132.292
207.676 218.697 131.873
207.209 219.206 141.95
207.544 220.003 175.228
207.689 220.28 176.761
207.642 220.393 178.305
207.057 220.107 277.165
207.187 220.38 278.459
208.978 220.63 122.195
207.879 221.947 137.998
207.48 221.852 185.848
207.27 222.067 204.45
207.347 223.556 188.351
207.915 223.407 189.649
207.34 223.322 205.758
207.146 224.443 139.277
207.261 224.912 184.52
207.285 224.992 185.821
207.273 224.63 189.56
207.163 225.856 141.169
207.606 226.302 196.335
207.502 227.601 112.918
207.543 227.801 196.895
207.555 227.899 246.805
207.548 227.841 248.017
207.571 229.184 196.462
207.542 228.935 205.744
208.46 228.49 248.202
207.284 230.571 173.966
207.918 230.507 196.254
207.283 231.955 196.894
207.188 234.411 205.562
207.353 234.403 207.71
207.361 233.589 208.499
207.811 233.239 240.815
208.074 233.524 274.08
207.219 236.492 197.072
207.082 238.009 196.526
207.343 239.38 249.446
207.476 240.595 195.931
207.511 241.987 194.539
207.594 242.612 197.744
207.552 247.823 273.144
210.419 255.412 245.96
207.419 256.857 261.075
208.199 257.241 262.402
207.428 256.69 265.122
207.39 258.092 255.296
208.137 257.961 264.678
207.355 259.675 253.814
207.446 259.556 260.26
207.096 259.305 265.14
207.435 261.091 250.731
208.772 97.7956 147.091
208.741 99.8872 147.851
210.756 100.047 133.988
209.031 101.294 134.892
208.723 106.435 129.153
208.988 108.704 126.248
208.675 108.912 139.351
208.751 108.934 140.635
208.614 109.015 141.841
209.183 109.919 126.37
208.99 111.466 129.07
208.585 113.246 134.798
208.608 113.03 143.304
208.692 114.568 132.094
208.667 114.337 141.947
208.747 122.03 118.797
209.369 123.824 116.427
208.755 123.275 120.185
208.877 124.675 126.307
208.811 124.809 130.322
208.916 126.064 129.773
208.924 127.387 130.314
209.448 129.999 109.046
208.42 129.432 143.434
208.437 130.636 144.63
208.935 132.258 267.68
208.89 133.363 118.84
208.839 133.349 269.511
208.778 134.703 119.471
210.837 138.868 113.788
208.508 139.535 126.478
208.657 139.09 247.99
208.883 140.704 103.633
211.692 141.341 113.793
209.189 141.433 127.064
208.681 140.785 130.255
209.578 142.29 142.061
209.013 140.797 269.774
208.817 142.027 103.041
208.672 142.315 118.886
208.613 142.188 130.182
210.107 141.519 140.141
208.872 142.195 272.666
210 143.339 283.467
209.204 143.322 114.591
209.604 144.37 242.795
209.599 143.709 244.941
208.609 143.654 247.917
209.031 144.993 245.014
209.511 145.062 246.571
208.962 145.001 247.909
208.839 145.095 249.289
209.475 146.707 88.7363
209.533 147.264 90.577
208.891 146.726 92.4223
209.487 146.302 243.029
208.998 146.445 245.05
208.992 146.427 246.539
208.985 146.387 247.93
208.988 146.396 249.332
208.658 147.696 118.929
209.452 147.839 245.118
209.462 147.823 246.484
209.465 149.824 88.5826
208.738 149.252 245.261
208.699 150.86 134.795
208.984 151.113 152.044
210.246 153.325 154.7
208.585 153.531 127.802
209.16 153.868 158.049
209.961 155.449 158.413
209.212 156.503 158.058
210.035 158.636 119.345
208.936 157.972 156.768
208.84 157.948 204.411
208.828 157.997 248.135
208.948 158.145 251.006
208.839 158.102 252.342
208.737 158.1 253.64
209.066 159.865 121.443
209.607 159.448 249.379
208.946 162.244 119.206
209.538 162.41 256.676
209.054 164.808 110.702
211.004 165.375 136.538
208.665 164.014 243.62
208.605 163.99 244.969
209.184 163.612 258.17
208.975 165.257 87.0366
209.141 165.539 119.055
208.598 165.349 246.313
208.839 165.771 264.397
209.115 166.747 88.3528
211.233 166.722 118.982
208.736 166.547 242.541
208.626 166.739 246.274
208.797 166.89 290.107
210.492 167.605 84.7769
209.104 167.954 88.3146
208.555 169.34 292.691
208.932 174.222 102.854
208.832 173.899 278.132
208.813 175.463 102.67
209.056 178.473 291.317
209.003 179.764 291.451
208.479 183.001 112.926
208.69 183.071 119.258
208.948 184.731 148.602
209.816 186.014 119.975
208.737 187.101 149.919
208.633 187.013 127.601
208.721 187.457 147.439
211.401 188.006 158.462
208.552 188.641 104.23
209.162 188.615 156.999
208.818 188.462 243.711
208.823 188.577 244.955
208.666 188.375 270.904
209.584 188.682 276.951
209.379 193.563 111.68
210.529 192.919 156.146
211.01 193.625 112.874
209.074 193.355 115.595
209.285 193.288 153.916
208.945 193.067 169.514
209.653 192.939 250.985
208.491 194.505 90.2151
209.096 194.936 114.373
210.396 196.848 153.63
209.302 194.057 156.313
211.226 194.764 169.708
209.142 196.008 151.212
209.117 196.705 113.235
209.05 197.019 170.776
209.888 200.713 233.046
208.715 200.442 105.649
209.013 200.151 265.242
209.679 203.76 127.522
209.521 201.692 259.634
209.695 203.015 83.2412
208.774 202.869 104.616
209.555 203.564 106.817
209.995 204.499 108.779
208.943 203.266 115.975
209.375 203.501 258.241
209.522 203.362 259.93
208.667 204.103 104.384
209.387 205.61 110.256
209.881 206.718 111.981
209.686 205.883 114.38
209.439 205.297 115.743
208.948 204.38 117.275
208.76 204.449 255.371
208.825 204.311 256.638
208.954 205.74 109.005
208.623 207.673 149.328
208.958 208.427 153.843
209.517 207.984 155.284
208.636 208.021 156.945
208.505 208.627 79.7189
208.684 208.747 98.5494
209.02 210.213 87.1392
209.657 211.129 88.068
208.375 210.076 159.137
208.702 212.107 105.833
208.662 211.643 146.567
209.277 214.397 105.696
208.73 214.437 243.405
209.091 214.869 275.692
209.066 215.988 113.049
208.756 216.224 126.128
208.961 216.144 240.792
209.52 215.977 242.054
208.63 218.418 154.86
208.617 218.869 133.076
208.71 220.339 151.54
208.571 219.116 153.536
208.906 220.231 175.599
208.562 220.528 119.046
209.136 220.989 120.459
208.488 220.216 154.808
208.864 220.413 178.068
208.52 222.903 118.802
208.479 224.516 141.141
208.785 225.999 139.326
208.405 226.011 187.015
208.883 226.429 195.832
208.859 227.774 196.382
208.913 228.511 205.04
208.78 229.063 196.366
208.84 232.195 240.699
208.759 232.031 242.113
208.931 233.548 205.944
208.776 233.572 208.566
208.707 233.402 242.129
208.851 235.633 208.111
208.913 234.685 272.53
208.631 234.931 275.389
208.956 236.116 205.981
208.841 237.905 184.087
208.801 239.25 184.15
208.717 239.624 198.282
208.837 240.606 184.045
209.479 241.934 197.301
208.729 242.159 194.653
208.875 243.477 194.53
209.527 244.768 195.788
209.525 244.502 196.987
208.804 246.396 185.709
209.133 246.78 269.891
208.731 246.669 273.979
209.223 248.536 269.896
209.021 249.122 271.11
208.666 249.052 272.358
208.819 256.824 256.699
208.892 256.768 258.102
208.573 256.694 263.935
208.664 258.105 261.072
208.529 262.301 250.26
209.946 97.3673 131.797
210.232 97.7272 147.079
210.234 97.2453 149.345
210.101 98.6405 150.606
210.003 100.044 132.016
210.325 100.07 136.151
210.884 101.674 153.895
211.346 102.857 155.027
210.487 102.893 139.115
211.972 108.504 125.772
211.493 109.3 128.447
210.309 107.51 128.973
210.443 109.976 126.361
210.333 120.393 130.381
210.819 122.131 117.4
210.438 121.795 130.415
210.252 124.703 126.029
210.242 124.856 130.349
210.313 126.136 129.765
210.397 127.463 130.291
210.474 131.786 108.996
210.339 132 111.532
210.345 133.4 118.136
210.295 133.101 110.104
210.164 133.392 266.812
210.071 133.404 268.247
210.159 134.66 120.214
210.437 137.779 111.856
210.366 137.911 114.548
210.838 137.89 115.832
212.437 140.578 110.915
210.859 139.269 115.717
210.146 139.231 116.99
210.002 139.414 127.753
210.135 140.707 104.283
210.889 140.692 115.712
210.251 140.759 117.08
209.995 140.734 128.942
210.401 141.039 255.267
212.054 142.828 107.314
210.905 142.1 115.803
210.717 142.839 117.179
209.934 142.051 128.955
210.269 141.954 256.578
210.494 143.687 103.138
211.61 143.241 113.891
210.888 143.415 115.876
209.879 143.59 118.569
212.256 145.69 104.349
210.829 144.739 115.97
210.22 144.898 117.424
