102.00891        133.60167        173.48204
102.33246        143.79690        156.37739
102.05077        148.46722        154.35756
108.83999        158.41371        149.69758
108.59020        164.86638        148.80953
107.59410        127.14854        178.75613
114.96129        146.59786        182.49913
108.06809        167.89762        182.26670
111.78197        133.86436        186.84903
114.83112        150.91474        151.63329
113.31673        147.22970        188.22809
118.31037        158.81831        120.60158
116.98506        155.62795        166.33741
116.40856        156.72583        173.24121
116.01717        160.96145        182.52440
118.66283        143.36215        151.74088
120.97182        146.28418        169.03644
121.05142        148.90760        190.70630
120.16427        153.05647        114.11029
118.64690        153.21679        128.16988
118.30594        154.77298        158.52736
120.18277        159.03846        113.54635
128.90226        139.15791        110.40780
123.05553        146.25240        125.09959
122.63471        142.93755        158.68497
128.81671        154.47810        127.49742
123.06232        164.10130        150.34579
123.52532        163.28130        158.17991
124.80732        160.98411        163.62021
128.35411        112.75351        177.51121
126.82349        134.46963        122.94069
128.65844        137.66778        128.19937
128.85260        139.08299        192.34713
128.36411        148.96837        120.94968
130.37797        150.47083        163.11766
128.31036        154.72727        180.19886
128.05655        152.61887        188.46446
134.29052        150.40203        194.26385
127.70337        158.68421        168.25458
128.02282        158.05290        173.41117
133.27268        162.74751        193.18909
135.97182        137.87043        130.05213
132.29684        148.22433        113.44432
137.08541        152.27045        138.02446
133.50880        158.32478        154.07906
135.80684        166.00748        128.30233
135.65750        163.73180        138.47554
135.80057        163.73655        152.56861
135.21320        173.38880        128.44960
133.68891        173.29758        140.62324
135.92789        179.93118        119.00574
133.60164        214.78570        173.48204
137.92364        113.32323        153.51390
138.02373        137.88769        120.08750
141.23994        142.13573        138.88050
137.84718        143.36569        121.16770
138.07356        153.29830        180.22533
140.10628        158.24298        168.04058
139.30117        156.77152        173.30667
137.87043        180.82383        130.05211
142.59880        175.10652        138.80643
138.18268        189.35309        110.64692
137.66775        188.13697        128.19925
139.08296        187.94140        192.34710
136.22832        191.11106        123.33066
142.41820        102.82413        177.51742
148.68075        107.96345        181.89024
143.40688        135.21326        128.44956
143.49806        133.68895        140.62336
141.36290        151.46507        133.68543
144.41338        158.24926        188.10938
145.92867        167.61276        129.11016
145.66414        165.47851        139.77520
143.34544        162.76388        156.50388
141.84639        160.56944        163.65377
148.41354        167.71912        180.84786
143.95906        168.49265        188.49564
153.85610        163.06205        192.12770
143.36571        178.94849        121.16761
148.55016        193.86355        123.79888
142.97408        195.23214        158.63317
146.33532        197.39041        169.14159
145.62955        193.78663        181.69758
155.19582        198.26173        187.07873
143.09445        197.92756        152.86198
146.81813        206.43382        183.56485
152.36306        108.60648        148.38376
155.90975        137.19544        191.30807
150.78812        135.80682        128.30229
154.32244        135.64614        139.41718
149.83909        145.31502        129.16736
150.89659        145.37555        139.60879
148.99095        146.92574        181.68925
148.58760        144.14572        188.46407
149.06989        144.70061        194.11695
147.24878        158.39892        143.30898
149.04413        155.50657        148.73388
150.90079        158.04541        182.94810
152.27040        179.71029        138.02443
148.98986        179.53716        192.95248
148.22425        184.49807        113.44436
152.39119        185.63081        126.08293
148.82330        187.66747        165.97393
150.90746        202.34953        151.06858
147.22987        203.47871        188.22822
148.46724        214.74420        154.35756
156.18399        115.99254        183.64580
154.11666        123.07753        151.08621
155.00602        123.34986        158.27014
153.05908        135.80063        152.56867
154.57379        143.35989        157.23084
151.38071        153.42199        153.24744
153.14963        152.88907        158.35080
157.52265        151.81634        165.12253
151.42445        157.25090        169.72060
153.13059        158.08611        192.27498
152.88893        163.64591        158.35063
152.40883        160.83364        163.46920
153.45726        166.16169        153.08251
153.17206        166.54105        173.41410
156.32882        177.50685        173.38507
153.29832        178.72215        180.22537
153.18122        184.99387        158.38304
154.32288        188.71337        180.89676
152.61878        188.73886        188.46449
152.77242        188.15576        195.75294
152.95533        195.28362        114.15124
154.17550        199.09497        158.49378
155.30083        199.96843        165.60119
158.35960        199.75803        120.39963
158.38654        110.56946        148.99391
158.84999        117.66142        121.03157
160.06967        116.40861        173.24121
158.53581        120.74936        113.45044
161.79214        117.12952        166.53039
159.05838        122.84710        130.83744
156.58674        124.85743        163.77060
166.98007        120.93464        190.56839
158.80694        128.49448        128.92831
158.11125        127.70340        168.25459
159.21250        128.04892        173.48400
161.54939        132.63999        156.11460
158.17833        140.73678        166.05795
160.46680        139.28881        173.38500
158.39669        147.24879        143.30895
158.75016        150.90079        182.94829
158.39803        158.39806        183.00840
158.12761        169.62688        185.40598
158.45704        169.89920        143.28301
155.50660        167.75145        148.73391
157.95589        166.01568        167.86171
163.62332        181.51160        138.59953
158.22256        177.07719        168.13560
162.60077        183.13520        193.01483
158.32481        183.28686        154.07905
158.59606        188.81248        157.90699
158.05298        188.77285        173.41124
159.03844        196.61282        113.54635
159.44141        194.35351        129.80387
158.28927        200.65508        173.47834
158.41357        207.95549        149.69750
166.14005        114.65493        151.31231
164.17085        120.48982        113.38909
163.57822        118.64694        128.17001
164.86820        118.16392        158.28878
167.84520        126.53452        125.28218
162.94300        128.34486        181.00112
165.05806        128.16105        188.46368
166.96727        134.09675        195.33139
164.52530        137.08540        138.02446
164.27798        138.09312        181.56514
161.94441        149.16670        148.96973
163.62269        150.25914        173.41368
163.37360        151.38074        153.24750
163.90655        153.14964        158.35075
165.84690        159.81741        167.79104
168.99584        158.87452        184.43011
163.64601        163.90645        158.35066
160.83355        164.38667        163.46921
167.49713        171.17178        128.77607
165.96075        172.28614        140.03185
162.76392        173.45008        156.50390
166.00736        180.98876        128.30229
163.73654        180.99501        152.56856
164.10130        193.73329        150.34578
163.28124        193.27039        158.17991
160.98410        191.98830        163.62022
164.33235        210.22703        148.96457
167.99171        208.55526        182.26230
168.32775        102.05078        154.35759
170.31172        115.36743        182.28261
169.56570        113.31677        188.22805
170.51145        120.97180        169.03644
167.88856        129.63996        165.29131
168.57049        132.29684        113.44434
168.04486        134.36287        121.71644
171.48067        149.83911        129.16739
169.86990        148.99096        181.68930
169.89924        158.33862        143.28299
166.89529        162.64137        151.02611
167.71924        168.38188        180.84800
167.00815        166.12747        193.99923
168.65024        173.18366        188.55201
168.92341        174.03684        193.92863
172.99755        102.33245        156.37742
174.15032        118.77713        152.25783
173.42996        137.84721        121.16759
175.06674        140.52161        138.38025
172.13552        151.53186        139.91857
173.15744        148.55720        188.54527
173.71655        148.62703        194.11431
173.43564        154.57385        157.23084
176.69976        159.28582        168.79107
173.25223        163.82035        188.77790
176.27395        175.06678        138.38024
173.31173        182.55426        128.93856
173.81727        183.54473        140.14018
178.60751        128.11010        110.61279
175.59451        122.60589        158.45506
179.12785        128.65846        128.19939
177.71089        128.85256        192.34708
180.25901        138.94364        129.68291
179.69659        137.89623        119.71967
181.46783        151.33514        128.34840
180.99496        153.05900        152.56863
180.30963        158.29004        138.38161
182.95729        155.07479        192.63588
179.71031        164.52532        138.02443
178.70269        164.27800        181.56518
179.82519        168.42524        193.98838
178.77250        178.74999        120.89223
180.09070        179.43690        130.13663
183.19294        102.00887        173.48201
182.93084        111.78196        186.84901
182.32572        126.82358        122.94073
183.77744        143.56535        140.27012
183.16041        149.81626        140.01585
184.15559        161.54937        156.11462
187.04396        165.23143        128.14237
183.21006        168.04513        121.12975
187.17229        178.66385        110.26327
181.09129        182.66926        118.72884
181.55071        203.16533        183.31434
188.30113        158.80713        128.92844
190.91040        157.12417        165.92274
188.77276        158.74283        173.41128
188.14750        164.22739        195.78102
188.76634        163.19078        181.66428
188.63449        165.05799        188.46362
193.85173        168.56256        124.08433
187.66744        167.97223        165.97385
188.13709        179.12783        128.19940
187.94138        177.71088        192.34702
194.38817        158.35310        129.82410
193.67230        153.82159        151.73415
193.44555        155.00599        158.27018
196.04617        158.53576        113.45040
199.59767        159.08004        120.79344
196.31723        167.05302        190.53017
195.91358        164.13701        113.76800
198.48962        166.97555        170.60347
193.70473        171.34076        180.46532
195.24392        175.60937        158.38342
190.92957        181.40716        123.14114
200.80306        156.18402        183.64583
199.18977        164.51721        158.33463
200.00575        162.62882        165.75578
201.52275        169.43488        151.23843
206.22599        158.38642        148.99382
206.43385        169.97748        183.56486
207.55383        143.29604        152.35162
209.66492        149.90759        181.54047
210.31985        153.04236        148.80422
205.68971        182.83667        186.76581
214.74416        168.32776        154.35759
217.11669        177.29656        163.39105
