98.34814        167.96375        186.45652
103.19138        137.84641        178.58906
108.32608        146.32021        183.92076
102.64827        147.14307        177.10883
101.97219        153.33980        178.46945
102.02318        171.61156        168.26559
107.23886        155.93013        177.65811
107.96485        163.76471        147.11445
109.86050        171.36382        183.23532
107.92530        178.45240        184.55970
113.15363        152.44565        153.13632
117.28131        155.50301        166.87100
116.37969        160.50867        180.85310
112.97571        168.10698        187.18657
113.35762        173.63469        152.88725
117.63826        146.91714        149.05198
119.07671        146.91987        168.16139
121.30615        146.00667        183.22625
117.29735        152.81349        158.55473
118.95924        157.80959        158.60727
116.83918        158.30389        173.41067
117.22790        158.36442        188.64879
117.42055        171.94736        149.03306
124.33882        132.43999        158.25270
124.28002        143.85144        188.17747
128.48296        153.89843        181.51839
123.44827        153.57391        192.28307
123.30779        158.50284        122.94229
122.29128        156.77143        132.23638
123.99213        162.41698        148.33212
123.47727        162.13449        154.77610
128.74792        137.76979        128.66363
128.05333        147.03839        129.43468
128.51547        148.80327        168.01665
127.69436        148.52480        172.98126
128.48778        151.47682        190.10759
130.86882        157.43384        128.77395
127.82830        158.65771        168.23450
128.04236        157.78813        173.35597
126.45374        161.06433        163.88725
133.50387        168.86090        140.13275
128.77944        168.09927        191.10255
128.59404        178.54869        192.65098
128.99185        198.07131        157.75426
130.63335        195.55485        192.57681
133.68474        138.15491        130.13621
132.33388        138.04433        153.13257
134.27967        151.89893        138.15185
132.19738        153.26767        158.52550
130.98896        152.57570        198.13188
133.33735        158.23045        155.18062
133.78319        164.34418        153.26650
133.60293        162.31737        182.54537
135.71665        160.30350        193.61623
135.99441        165.98640        128.90120
135.44375        173.29414        128.97572
133.64561        173.23746        152.49214
132.41336        201.44533        152.99712
138.34290        107.92183        184.55573
138.44243        112.90100        182.62369
137.34136        115.80233        154.08258
141.25915        125.99172        152.58943
138.24658        128.59407        192.65098
137.41645        143.61746        127.91931
138.10794        142.89627        138.24219
138.25493        151.10248        169.01611
139.83441        149.64657        191.61353
138.19829        154.00617        180.76049
139.37272        157.71549        173.42596
138.13521        183.16129        129.84586
137.76691        188.05011        128.65976
143.47490        107.21789        177.28705
145.61263        108.18836        183.47096
143.16089        113.35812        152.88742
144.34622        134.66084        140.70871
142.80956        133.57577        193.35316
143.16385        136.28402        129.75594
143.59549        143.42395        139.34829
143.52089        151.81398        132.58356
142.09688        159.24471        165.76748
143.06604        164.08900        129.65299
145.43823        165.94927        140.19384
147.46496        167.87329        183.28818
144.47074        168.06282        195.36971
143.42397        173.20059        139.34832
145.41999        193.49650        181.20358
143.85157        192.51593        188.17744
145.07672        197.25216        166.66551
149.73980        197.33225        192.16391
143.58237        201.79214        156.56409
147.28618        208.46233        184.45088
149.29628        103.35904        179.02313
147.46900        107.96373        156.61289
146.88827        113.23402        147.20431
147.37848        118.27823        187.98966
150.75010        128.57504        191.67794
151.56671        137.55900        129.04645
148.74856        144.85199        139.72490
149.94747        147.90357        181.86146
149.76418        143.22521        194.44805
148.66606        146.99182        129.72198
146.98179        153.47026        188.36223
147.22242        158.66076        143.19942
148.90193        156.44165        148.49418
151.01410        157.18041        193.77927
147.42897        168.85960        129.40842
148.86395        168.38109        167.58550
153.26658        179.79253        180.66785
148.35724        178.48940        195.48795
147.14946        188.60188        128.31895
148.80325        188.28049        168.01660
148.52492        189.10168        172.98134
151.47678        188.30809        190.10756
146.91695        199.15738        149.05188
149.45875        202.78487        152.94139
148.57875        201.69323        173.81323
149.17766        202.90354        179.17438
147.14304        214.14691        177.10877
153.03107        107.96483        147.11446
158.48816        116.83902        173.41126
156.52098        116.16676        183.47066
154.61511        127.74355        121.50470
155.73135        126.45369        163.88720
158.63824        133.25019        154.84867
154.47782        133.60300        182.54546
157.23300        138.09271        192.28084
152.64292        153.01242        156.56115
153.38850        153.13986        188.54715
152.65502        158.43002        168.04544
152.52645        162.12481        163.78390
153.13994        163.40747        188.54718
154.93704        166.80248        151.63544
156.56425        166.25312        168.38950
153.17569        167.43959        173.40277
151.81393        173.27479        132.58358
155.67934        177.65485        172.26589
150.91583        178.63525        188.16531
153.21027        182.34017        138.36250
156.61074        187.00969        128.77278
153.26900        185.23166        158.49376
154.32897        188.32900        180.81561
152.81343        199.49842        158.55464
155.35701        200.00839        165.91011
158.55902        105.76862        184.19152
158.88103        113.39997        149.02559
161.70903        117.25210        166.47491
158.29282        123.30776        122.94222
156.87070        123.07146        128.39588
158.13820        127.82831        168.23451
157.95346        133.13941        173.55751
162.30903        137.02169        180.06422
158.13465        136.42930        139.84240
156.71793        142.75951        163.66189
159.32212        147.87242        143.60735
158.45045        150.94966        183.08532
158.09638        152.46340        166.04610
157.98581        164.11682        193.74147
158.70814        169.97156        143.21807
158.20318        169.26136        183.38372
159.24470        174.69903        165.76752
158.42177        173.56920        188.29172
158.23050        183.45875        155.18070
157.78806        188.75351        173.35591
158.50276        193.48776        122.94224
157.80965        197.83637        158.60730
158.23122        200.22949        173.44997
165.84352        113.58223        153.03892
164.29818        117.60725        158.12375
163.46744        118.23303        172.97792
164.53672        125.66493        191.19119
160.55977        129.71726        128.79630
160.48055        128.14221        173.52606
162.81684        128.47426        180.92628
164.89775        136.07371        138.48397
164.22006        130.98902        198.13200
162.08472        149.14732        148.96295
163.62296        149.73335        173.43942
163.89169        152.94782        158.64978
165.49053        158.93175        166.57055
166.79221        159.97065        183.17235
162.44095        158.06421        188.45029
162.12482        164.26938        163.78406
162.30679        173.11730        158.80722
167.61289        171.55413        185.82434
163.91662        180.91724        152.74849
169.56152        183.39648        140.09231
162.31740        183.19238        182.54544
161.82973        182.83104        193.70996
166.86071        183.34284        128.41956
160.95435        192.88722        128.33902
162.41692        192.80358        148.33215
162.73865        192.75087        156.63873
160.74335        199.53558        178.83501
163.76463        208.83078        147.11443
167.61821        113.89241        179.17444
169.87851        117.63824        149.05195
169.87618        119.07664        168.16127
168.17726        115.71811        173.39078
168.26357        123.55418        126.94783
168.47951        126.46759        173.19597
171.64238        123.25812        182.97350
169.91028        128.17430        128.35507
167.66190        129.83182        165.34880
167.37766        138.23450        161.15788
168.08196        138.30024        193.22261
170.82749        149.19158        129.32795
168.97654        148.15766        164.64278
168.96408        149.82074        181.89285
169.40540        158.89487        143.48378
167.64849        162.08475        148.96304
167.43955        163.62035        173.40285
167.42280        169.72287        194.76176
169.36670        169.05707        128.85134
168.38103        167.93186        167.58541
168.04734        171.94381        139.72491
167.94814        182.96565        202.01198
167.77024        201.89497        172.05027
172.26847        108.09057        184.33104
172.94444        124.28002        188.17747
173.17796        137.41640        127.91926
175.56042        138.12034        138.84100
172.69154        145.54158        139.91902
171.91637        143.46732        171.97563
173.14435        148.59701        188.49532
173.84668        148.31277        193.57399
173.56886        158.37407        188.29157
173.20055        173.37201        139.34828
176.36153        180.86761        130.73324
173.56202        205.33251        152.72182
171.72561        203.59078        182.76410
176.11095        118.47215        153.55280
175.93926        121.22396        158.53533
177.36429        122.99756        191.20386
179.02891        128.74570        128.65976
179.17849        138.22538        130.76570
178.57857        149.11142        158.67929
183.06982        157.66510        154.96342
177.33247        159.89761        173.50311
178.71795        163.64628        181.00233
178.52707        168.04325        192.00347
178.56102        167.37769        161.15796
178.68768        173.89937        138.24216
176.86878        177.42685        193.56616
177.94597        185.54330        182.49074
178.55997        187.22628        188.27741
181.30044        137.84531        122.27025
183.14903        143.55727        152.49202
183.21968        142.80968        193.35320
182.85884        149.96698        128.48852
183.53863        148.64494        140.04373
182.58919        152.97627        163.45648
182.57418        152.73682        178.50363
182.83110        154.96609        193.70991
185.99579        159.73670        128.79749
181.08055        158.03067        139.49948
182.51604        164.89676        138.15189
183.16127        178.66057        129.84588
182.44817        186.61732        197.56375
187.36537        119.32277        192.49527
187.71399        138.23974        190.46894
185.74941        147.39244        162.24988
188.96765        158.13823        168.23456
189.11013        161.40438        180.01917
188.21220        165.55247        192.03377
187.45733        167.76645        166.02887
190.80378        141.25912        152.58943
192.80353        154.37867        148.33214
192.24201        154.32645        158.56027
193.72431        156.87081        128.39592
196.71923        166.97367        191.89246
191.85390        168.21889        173.50600
193.48706        171.96447        182.96904
192.51595        172.94439        188.17741
198.51672        147.37853        187.98972
199.95998        158.38370        173.42660
199.64812        161.89501        165.81226
200.91947        157.27671        180.69368
199.46909        164.41621        158.54294
197.61727        170.79427        168.05064
198.32355        176.11097        153.55278
196.36486        176.12884        158.20134
198.07124        187.80290        157.75429
197.47232        187.36533        192.49517
205.33255        143.23352        152.72184
203.39575        158.88106        149.02563
200.21799        158.07557        188.21529
202.78488        167.33686        152.94141
201.69332        168.21686        173.81328
202.90346        167.61820        179.17438
201.79223        173.21246        156.56412
202.07183        186.57110        168.43460
208.30554        143.85701        183.45003
208.83101        147.46901        156.61284
208.83095        153.03108        147.11446
208.58912        172.48852        185.95518
