196.95586        337.79746        272.87716
196.85913        344.21282        275.95370
200.32633        346.23871        346.79781
198.48174        347.95397        291.63489
200.92055        346.95016        302.69599
198.65741        355.70947        311.35881
198.75346        358.50284        321.99960
202.65552        359.26999        294.92356
202.66795        238.62424        278.56860
205.89996        239.43582        291.66263
207.51926        242.27922        253.04100
209.10738        249.38141        242.92526
203.47404        255.82055        314.19701
209.02528        250.39257        326.58648
208.59338        265.10569        278.24910
204.88277        270.81948        294.51933
202.13270        274.79467        319.18486
201.49888        272.49580        326.53312
204.33624        281.49558        331.13333
206.95082        283.10214        238.95567
212.43487        308.09067        360.14122
206.37948        316.14546        357.27608
202.68347        319.63788        319.74642
200.53350        338.61864        293.61999
204.10111        351.33453        314.11262
209.95323        233.45277        286.44251
214.54079        247.50078        233.80089
214.51737        244.71961        261.15807
208.29607        248.02411        284.22957
211.78046        251.19907        253.49799
208.59430        253.54917        272.94231
208.21632        253.16777        282.37653
212.56256        258.56740        238.96401
209.00420        258.55023        252.61078
208.56538        263.24729        286.55010
211.42809        257.92108        321.27012
208.57120        262.97559        260.85654
209.49399        270.16057        266.55007
211.50589        265.02697        314.60214
209.56259        267.84423        324.37260
208.69716        272.40974        302.69665
209.01065        278.43148        229.93610
208.51497        278.71664        298.93996
208.77143        286.90362        232.00240
211.19833        284.67165        294.16391
210.79846        288.33019        262.38527
208.36520        288.64044        298.12462
211.47490        294.66177        221.11132
213.21936        297.30044        233.16521
210.72336        294.72176        287.64835
208.81907        299.80009        291.52246
208.86854        298.53778        268.25083
209.02028        303.49402        272.66314
208.61009        306.03594        346.38450
209.01308        314.26206        250.07958
208.63158        315.91731        343.01287
206.23563        323.92547        309.09001
212.48580        325.45431        357.34708
207.71079        346.63196        293.05946
211.66774        364.77511        296.49999
218.20215        228.39945        278.63966
213.01103        240.42292        271.78319
213.12021        232.85672        299.31932
213.11200        243.27499        285.52829
217.37625        243.14127        297.12563
216.04160        243.55166        302.65704
212.67315        247.90247        238.11020
212.87133        252.13029        310.47645
215.59394        267.61449        331.93651
217.83960        273.10871        225.41773
213.12083        272.06740        238.34275
210.66963        272.77653        287.87772
216.81707        273.33710        295.26553
212.93012        286.73135        228.57952
212.31330        284.58469        280.68232
212.70278        289.22616        242.06408
212.50568        287.90194        270.90650
215.83422        293.99687        321.40725
213.06304        293.58307        331.36784
212.67689        297.58386        252.30555
210.65553        298.24213        263.37609
212.82275        298.81951        272.46436
213.34443        302.63133        327.63886
213.75886        311.38654        258.34760
210.90711        304.37380        278.95035
220.21430        306.82901        247.34057
210.86445        312.12575        286.60029
212.87612        307.64023        298.18379
210.71326        308.73768        318.67607
213.28399        308.06187        323.92812
222.14722        315.13538        322.79311
212.54715        318.00322        244.40067
218.77614        322.44208        288.89133
212.44467        322.49396        348.17573
213.07500        324.22035        252.60905
222.15160        330.38773        259.16754
212.75034        331.29907        284.25039
218.50672        332.91412        293.60895
212.44114        346.63773        283.96967
212.42390        342.27252        352.05799
212.57544        354.00002        284.93731
214.60911        355.87950        296.82226
215.57306        353.99067        311.51398
212.61958        358.38370        288.46119
212.27059        363.76260        289.26554
220.48879        228.94240        288.02769
223.31757        231.65230        296.61042
220.21240        239.81891        251.25355
221.90898        234.77388        277.13533
223.23641        249.36349        320.90510
222.07468        251.66060        244.08792
218.10322        252.72274        267.86492
219.39882        251.94064        287.61006
218.66002        255.90178        314.43142
216.14495        252.30290        331.96025
218.66926        256.23432        258.22717
216.84072        259.72395        264.06750
221.35414        257.82540        278.38874
224.27517        262.10958        327.57141
218.73046        266.64570        284.58125
225.90481        267.14838        299.72304
222.96796        262.30447        318.54364
221.63390        267.15406        257.35320
220.66079        271.38265        313.72181
216.96987        273.11719        233.46139
221.72435        273.70072        239.91541
219.09596        271.86876        268.29209
219.07388        272.32868        288.18644
221.06166        278.78355        223.33936
227.33922        277.97527        232.44290
218.31113        278.30579        251.91561
220.55321        282.58924        273.67137
218.42835        278.89504        288.81887
219.02274        281.72987        294.41195
218.59570        277.95317        308.97478
220.82774        285.71564        223.84546
221.01788        287.01755        234.13785
219.11375        284.25093        288.98424
221.14857        288.56319        264.82088
219.14509        291.67087        278.56381
218.12222        288.93418        296.20085
219.16095        286.28908        307.64385
218.33862        288.86103        330.38660
220.02970        297.09131        224.58312
218.26290        294.07079        252.34585
219.67658        296.15004        269.51588
219.89257        296.45803        288.38398
218.84664        298.04262        304.87164
220.78572        307.96211        315.73885
223.21499        295.67092        335.21820
221.42041        305.49250        328.17435
219.29118        303.86695        338.46573
218.15765        308.01058        293.86114
221.98432        320.62904        239.14725
220.92826        326.17088        248.61931
218.57939        324.41816        303.75613
221.37883        326.77287        276.23102
218.11515        326.56131        358.05965
220.73918        336.70065        281.01960
218.55029        348.34130        294.09144
218.64674        358.29420        298.42396
219.66965        356.03342        308.14397
219.42184        363.05143        308.07863
222.65525        238.17833        286.53179
222.74345        238.23335        296.37730
228.96008        242.78301        253.98687
222.63560        246.32717        279.02023
222.41896        247.81640        293.57602
222.06621        252.40827        258.02626
222.86811        258.03258        252.35535
224.00431        264.94507        269.91197
223.42730        264.45070        289.51804
223.25276        263.04585        308.58463
223.23785        279.05092        242.21348
223.02083        277.83190        259.92069
222.82810        279.26283        299.79544
223.50768        288.01939        242.93838
222.34066        283.91338        321.44654
223.20252        289.42809        253.15676
222.88537        288.75607        317.42115
223.24389        294.46128        262.63867
223.19172        293.84625        313.68728
226.71461        305.04689        278.64162
223.17364        297.60748        294.50684
231.48392        300.67441        317.92772
222.93961        298.43732        321.84530
223.23010        308.31266        258.75509
223.25947        307.64621        291.98900
223.33574        307.74092        306.60483
222.41764        314.98025        248.46395
230.20441        312.94316        259.95626
223.04326        318.30232        253.03427
222.87732        321.48316        258.17650
222.98834        318.54950        278.22102
222.55463        323.59213        298.11128
225.77664        331.22635        304.16370
222.16827        344.24490        291.23629
222.65864        348.22709        305.35303
228.92922        357.47921        311.11099
224.40555        359.47418        298.54936
222.23481        358.62442        303.93474
230.52601        236.35850        287.60306
230.21793        240.31626        296.45290
229.52090        248.29795        247.32778
229.43816        248.41297        257.87496
230.51172        244.97150        285.62367
228.06363        255.07270        294.62682
228.26166        252.84738        265.93412
228.67884        256.16863        252.61825
230.77898        255.99622        283.37920
229.76002        263.00158        259.56934
232.39167        263.48001        311.25199
228.43757        273.52875        233.02884
229.91684        274.13602        248.39869
232.13540        272.31238        320.54516
228.50373        277.83692        306.49395
229.60331        287.11353        231.62495
229.77714        286.77830        242.20451
228.37757        287.89675        252.76865
231.61734        290.41876        304.45022
228.33273        293.62692        327.58334
229.50445        298.32959        258.41024
228.88165        298.85432        300.24426
228.29869        299.21155        331.82837
227.23639        304.06998        311.14506
229.19919        305.55189        329.67473
228.24270        308.92309        252.11882
230.05924        306.85043        289.30601
230.80610        319.91583        249.14345
231.71150        318.20361        287.67955
228.59997        321.76917        280.69052
228.06156        327.64218        246.56830
231.32104        328.12008        287.19682
229.27403        336.01620        285.87368
229.64418        340.69321        301.81607
229.55259        349.74326        291.85490
228.73739        348.40766        315.26862
233.44132        345.38336        325.92457
231.72686        355.26095        326.16372
235.83455        248.34303        272.94944
235.53699        248.44727        306.15457
232.19129        252.49109        252.84357
233.28312        259.16710        303.78238
233.43405        260.89469        324.02175
241.46171        262.51186        253.12919
232.73134        276.41080        312.21755
234.70945        283.48513        251.42109
232.98749        301.49711        252.97708
232.47303        305.28388        266.41408
232.96927        302.91784        305.27772
234.99321        307.83252        243.97134
234.52203        314.13549        246.56550
233.12654        314.11476        278.15852
232.52847        326.11603        294.43703
237.01071        335.55523        311.37990
238.84183        346.38337        309.59474
232.04602        343.95141        313.61429
233.27145        348.42969        318.87594
237.89950        243.40534        271.77880
241.04559        255.04824        262.68563
240.80777        253.81655        288.42846
238.72812        258.67871        303.95101
238.80820        271.99570        312.06248
241.40622        272.69197        305.79177
238.74114        284.38114        312.12283
245.59301        288.81822        249.86999
238.94755        294.39060        303.78341
240.89665        298.47351        243.15390
240.63894        303.89008        252.89975
242.30352        302.58548        260.07518
238.49692        302.03624        307.66247
238.42369        307.54444        286.05416
238.55933        308.46839        298.05638
239.01375        321.59968        250.07864
238.41918        316.13180        279.12105
238.68390        325.55334        289.01631
238.35502        325.93789        278.60647
238.28694        353.50650        318.41462
243.04965        242.64998        268.08577
242.97806        249.68669        278.11645
242.68180        262.91332        243.54022
243.09274        278.03825        247.53154
242.65685        282.04755        316.16989
248.15868        287.40058        305.52414
242.79400        298.18709        303.65803
244.11221        310.77142        281.18614
242.78051        307.88091        294.37968
242.09866        314.08342        268.30399
242.57370        310.19919        303.82621
242.74499        321.47391        271.71857
243.06473        327.53179        295.23354
250.80601        231.39835        271.47593
250.26338        234.06082        263.04646
248.05899        239.29089        273.47705
249.88711        241.57553        303.63198
254.16095        241.45806        311.45490
248.09937        243.04210        266.23251
254.04322        258.85835        272.38984
250.54655        251.76481        280.09805
257.74984        249.93704        243.63220
252.66801        259.01375        248.57452
248.15181        252.42186        297.52795
251.46849        253.95296        308.36707
250.75297        262.13646        237.84894
249.99468        258.04035        294.03415
248.23345        262.43735        242.98375
251.69750        265.19167        302.78482
248.68040        269.04341        248.65350
250.60062        277.97725        307.02689
248.28762        278.15187        314.25294
248.69959        278.76642        326.21049
251.79229        287.21290        327.28683
251.36836        287.50961        317.09346
248.58945        293.64899        238.89074
249.57162        298.33807        250.75729
251.96134        298.44263        297.21086
252.31979        304.61111        237.34693
251.72920        306.62434        265.25852
248.42868        306.44981        292.01565
248.04071        313.66012        268.48139
251.30031        315.79127        274.67544
248.69612        323.98446        298.29234
246.12442        339.05524        316.25529
258.18000        231.47952        281.00148
253.66000        242.63830        269.95143
255.52601        242.45758        281.43033
252.75969        248.38231        301.73662
252.67796        262.09288        261.78048
253.29061        262.50338        288.99336
257.14680        268.37698        287.34623
252.89177        272.87499        260.44043
257.64739        278.76253        296.55342
253.64691        278.48877        317.64087
255.07602        288.46464        242.66505
252.89648        296.47884        232.59685
256.07151        289.95517        263.66340
255.25796        300.49130        314.17791
253.70290        305.84770        276.02103
252.88539        305.70824        288.66183
249.98480        304.72262        303.59835
252.83256        311.08242        308.59505
253.47334        314.13454        298.07721
253.86737        317.53631        263.34967
252.70208        322.70333        306.23132
257.12075        328.90300        261.80920
252.84426        328.19746        272.68374
252.32656        327.36945        289.16469
260.32225        231.00511        269.53834
261.58507        232.93807        305.50213
263.70853        238.77945        314.51656
257.81972        243.08025        263.44681
259.51420        251.09401        269.66389
258.48889        250.70427        297.93453
258.22248        248.75915        314.30821
265.64458        251.32302        235.46102
258.27509        253.11447        253.47522
262.37979        252.62646        282.97248
256.00657        253.28778        304.05511
261.46790        253.41360        318.28026
258.60672        258.65271        232.68734
258.95937        258.32368        238.45380
258.70474        258.60114        252.49848
258.37742        257.85659        303.59250
257.80608        258.49372        309.31962
258.68260        262.41883        260.50510
259.75644        267.28176        303.74905
260.38366        267.27677        242.52894
259.43448        270.93980        250.25185
263.50229        270.06944        294.79759
259.09415        272.80128        265.19135
258.94750        272.99153        308.92345
258.12240        274.60181        316.86472
260.15538        278.67786        254.44692
261.85604        281.74980        327.00042
261.10208        285.76339        252.45271
258.81045        283.74401        259.04625
258.83834        288.19961        312.85241
260.94607        288.31660        231.44475
259.17954        293.19982        290.13911
259.27471        289.12382        302.34935
258.46569        296.88626        234.30087
258.87742        294.05451        246.78615
258.68738        293.85284        269.52698
259.95361        293.95252        324.16041
257.93660        300.47908        243.40599
260.53088        298.22238        272.50053
257.94750        297.80920        278.33228
260.48331        299.10005        261.30673
260.37002        304.93252        288.05513
258.99840        308.49512        298.57794
258.03672        308.18019        305.50971
259.10613        314.02288        293.03948
261.66862        316.16330        310.61599
258.67651        317.61361        269.08473
259.31557        327.71093        270.33427
260.81685        321.16775        300.26553
260.84662        325.29591        252.89933
265.57574        228.63760        257.95319
262.92089        238.35982        278.52011
264.41347        242.66301        288.77348
262.22569        242.71704        299.10149
262.09843        242.98404        304.31443
262.56498        249.42582        308.28278
262.50339        259.68046        228.96706
262.76190        258.33201        241.98535
262.12179        261.31993        298.27594
265.32875        264.55994        284.68505
265.16281        265.57576        313.72162
260.74660        267.74343        257.93583
261.78185        278.48230        308.16041
261.85115        283.91738        298.92791
266.96583        289.74228        241.43806
263.22834        289.18751        258.52686
265.59082        300.47996        240.18581
261.43718        297.58147        251.21178
262.87749        296.79887        296.65828
262.77462        302.46777        230.07052
263.07942        306.48783        268.26539
262.34096        303.97901        296.59692
263.02895        305.48268        318.16657
262.40644        308.25572        277.94252
262.21871        315.58138        275.02526
262.10627        324.15860        260.53923
269.53801        321.93393        307.80676
270.49184        330.92772        271.33138
275.40154        228.05393        251.24201
268.08946        228.99210        274.49442
271.47061        233.28963        260.70593
268.39449        235.53173        298.47335
271.23233        240.23046        304.15764
270.45235        243.12606        248.18670
270.77004        243.46979        272.62819
266.27157        248.76403        256.45609
268.54386        247.93279        290.39135
271.41802        251.64556        301.12411
270.74553        254.27111        319.26219
265.89392        258.28822        308.14830
271.75196        261.56570        240.87319
270.58688        261.96976        248.51350
269.51661        269.73392        305.98252
270.13595        276.73923        328.21162
270.34556        281.46343        238.69360
269.70455        286.63527        328.48854
269.42710        287.92745        228.92557
268.13731        294.03749        318.52429
270.84311        297.79052        324.67796
271.41517        295.30688        231.53644
268.57226        298.31085        312.03205
272.66742        305.95547        235.61389
270.67999        305.03632        319.89890
268.59689        308.30729        254.03000
266.03913        309.01069        314.42530
267.88253        313.71197        298.71496
265.69429        314.01838        303.85085
269.88103        315.08430        315.63705
270.46625        321.85020        252.30779
267.72799        317.78725        262.84054
268.11270        321.52855        270.17452
270.72747        318.35496        288.76620
270.53251        325.41980        294.50123
268.12084        332.70563        261.17026
274.61868        223.34327        270.53296
272.97112        223.51819        278.39786
272.68908        236.86804        268.05000
272.67782        233.24052        277.91155
271.41515        234.64083        288.18017
276.76310        238.33298        279.45644
273.50711        238.24523        294.20238
276.95886        242.52219        239.90111
274.80593        242.68417        282.16585
272.56918        250.05453        265.45595
273.05743        250.19591        311.86243
276.93787        252.82835        248.43491
271.64813        258.89983        233.35206
277.11524        270.76516        241.12388
273.55676        272.56927        318.82928
271.72609        283.71359        312.15749
272.49057        291.96230        248.58420
271.83696        293.93258        313.78640
272.99486        298.84045        242.27711
271.81410        299.57205        259.79933
270.55417        298.33967        268.07639
271.87941        303.76943        253.23448
272.34538        311.66753        268.61556
272.17939        308.40354        297.99233
272.08738        311.99765        242.69099
272.66338        313.83800        254.75127
272.39887        313.77943        281.54125
274.84997        313.98467        308.88940
273.74602        325.57616        262.35857
277.12880        334.37090        259.92849
283.69527        223.14156        259.36138
284.33072        228.35482        271.82754
279.02959        228.57825        284.51679
278.52848        231.53012        291.36602
279.11276        240.55508        248.33754
279.32262        239.74603        261.48153
278.54852        238.23985        270.35289
280.67093        238.43568        298.60834
278.56030        242.15638        292.37959
284.03488        242.86989        312.03865
282.65923        250.01939        238.88438
288.30846        235.32566        251.63565
279.46919        246.09111        304.34931
278.64996        249.18219        319.11318
284.69984        252.74490        315.39874
281.78523        258.34716        240.27996
278.94381        255.87419        252.79743
278.69470        262.31362        244.83122
278.81701        262.52670        327.58108
278.23086        268.35204        316.80467
285.62556        270.57988        327.19645
278.44355        281.07506        243.79075
279.08497        278.55684        317.21010
285.23092        280.45819        327.66751
279.64637        288.43024        237.54010
279.07750        288.48605        317.20873
278.55603        294.59929        246.57897
278.12931        295.31252        327.54799
278.05629        297.72351        242.37400
278.78748        304.48159        250.11993
282.10052        305.85925        312.64212
278.94375        308.61233        261.95714
277.92473        309.36103        303.82952
284.31818        303.70445        320.26450
279.85864        314.25916        236.45697
278.03029        313.76272        251.97313
281.16280        316.83251        282.66853
278.28109        316.78634        295.45302
281.46640        317.66970        242.86713
277.88787        317.55209        248.17711
277.88155        318.51828        261.98723
278.27152        318.20573        271.89275
284.60986        323.54378        288.19907
283.46554        329.48249        253.73326
280.90824        331.17851        281.78949
285.33184        329.94353        272.99988
286.32389        229.67619        260.80978
284.41967        239.50410        288.59573
284.17250        237.82392        304.06163
282.13133        243.23415        270.66395
284.14681        244.14367        280.20334
287.61603        249.09067        253.98756
287.15423        245.80328        298.45406
284.23835        253.43729        323.46741
288.31361        263.19801        230.32514
284.19081        258.01242        256.99200
284.24589        258.57498        304.91201
283.89431        258.69208        324.10371
285.55468        265.84255        248.18279
284.73294        265.25898        313.92455
284.12779        263.18147        327.36188
285.71445        288.04362        308.08603
285.53170        296.11583        241.51856
288.08841        307.67445        255.12335
292.26436        307.15739        235.98181
284.50437        308.71985        263.58691
287.02469        309.72155        291.02262
284.30705        308.72614        302.13271
284.36469        314.86312        272.18232
286.76977        316.89656        303.97949
286.36901        323.82985        264.98959
288.48099        232.42932        294.46003
290.47527        233.29894        309.18886
289.47543        237.99296        269.01886
289.26075        237.96331        295.16277
288.80572        242.39322        262.63977
289.02741        248.10477        306.86106
290.62539        248.42620        314.47394
288.70672        252.01410        234.59043
288.31429        255.83014        262.71602
295.83242        257.39863        236.16729
288.01297        258.58505        310.50824
288.77719        262.52850        318.57385
291.05575        261.56697        324.61562
289.49723        267.98982        242.49371
290.23302        272.96657        239.26787
290.34082        273.02301        317.48275
295.63706        274.55395        332.22783
287.75240        284.90411        248.50238
297.75417        290.95828        288.47126
291.66780        290.53308        313.83227
288.53696        297.97386        232.65803
288.97667        303.81411        303.53821
288.47688        315.02788        248.00706
288.88817        312.36738        276.27788
288.62237        314.44794        314.53418
285.99091        318.76543        268.02930
288.22590        318.33073        288.37171
289.46128        323.64459        298.43033
298.42996        229.07065        270.66608
299.11874        230.10663        261.82781
294.47544        232.70799        295.00753
292.95476        237.41561        260.35791
296.28154        239.02333        309.60256
293.86177        249.48793        271.43994
297.42006        249.06892        306.42968
303.86224        252.64787        264.32154
296.75631        252.06088        287.11957
293.86889        252.78970        295.26182
296.89290        259.58379        271.59437
294.15083        258.33826        297.83694
294.25300        262.88558        252.54825
294.38809        268.03647        258.39503
297.40115        269.15923        232.44478
296.95092        265.95959        248.32026
295.09337        272.35853        323.67480
294.93877        278.73086        308.54065
294.24974        280.37232        321.86512
293.68783        283.70248        242.06561
297.42940        289.15885        304.21344
302.16532        305.53397        242.43043
294.94251        294.38681        300.17391
298.42422        298.60394        231.83134
291.85482        298.79040        248.33025
293.81643        298.52701        278.81283
291.94207        299.02406        314.25431
292.32731        304.26667        248.35929
294.22678        307.88042        308.89893
298.16083        306.33899        316.76891
293.78897        311.38656        248.16988
294.06009        308.38243        256.82321
292.31838        306.31856        284.22097
296.72183        319.59515        309.64120
294.81713        318.90270        278.85934
293.97545        317.68045        283.77890
295.45531        326.12937        284.33830
296.21636        330.88075        261.72796
301.72139        328.30042        270.86299
298.15798        234.71436        298.64208
299.06664        243.72439        262.35700
297.92434        243.17399        268.36878
304.92956        242.40122        298.31234
297.87548        248.45778        298.58579
301.76547        252.97995        277.85462
299.82809        259.76855        278.54588
300.76734        264.03213        291.42655
298.73795        268.83589        313.99854
298.50867        266.66548        324.33840
299.62885        268.75595        266.43032
298.96959        268.04713        303.75109
298.74951        272.66851        243.37464
298.60412        276.80130        264.02752
298.28394        281.50544        253.37205
299.85675        278.42890        297.23869
298.98013        281.86476        317.19267
302.00647        284.43876        262.44752
298.24732        284.30097        308.51709
300.52038        288.99239        243.19489
298.21327        289.14287        248.50684
302.38265        294.65410        272.72203
298.70668        293.99076        250.39341
298.57623        294.10024        278.39115
297.95262        294.26423        293.97844
298.28398        298.58115        238.67621
298.87254        301.25082        253.00177
298.12102        298.69845        289.17641
299.95532        301.73023        304.19892
300.89693        298.79855        310.15269
297.87190        306.31403        270.67767
298.21382        303.74649        284.23027
298.37218        307.82948        297.35571
297.76950        317.97191        264.68314
298.98070        323.54602        271.92082
299.20555        325.89002        279.26664
304.08779        232.72409        253.64104
305.53540        232.50377        297.10032
304.41108        235.79530        307.44174
304.66368        239.35892        262.67821
304.07778        246.43567        308.87730
305.68230        252.87070        237.30835
307.21539        250.64400        290.01918
305.85000        263.40569        237.36781
305.76139        259.38068        247.60868
306.42078        258.37220        298.43026
302.11100        257.83710        312.00555
304.91272        262.60804        256.42545
304.13310        268.62628        304.63080
305.08315        271.65658        327.48108
305.66926        273.16981        252.47246
301.74863        273.46985        258.22986
306.01204        269.41772        317.19025
306.05513        278.56191        306.74040
306.25890        278.90033        315.15631
307.56460        278.38793        326.72447
302.31720        284.19301        298.96450
308.42681        288.01248        249.64257
305.45851        291.46857        303.25476
306.64967        299.92600        248.31741
308.68791        297.01878        238.33044
304.44536        296.33224        262.51738
301.94821        298.10695        278.01832
306.60783        304.61911        280.68887
306.53582        304.35462        307.93314
308.13453        306.46023        268.71510
307.79055        304.38350        297.94372
303.76544        314.63367        267.85708
304.39571        314.55190        276.78699
305.64374        315.99470        306.06667
305.15850        317.06852        314.25503
303.72076        327.41422        263.29832
304.16505        327.43094        278.29649
307.69894        232.45409        257.95198
307.87688        238.29223        270.85859
312.60942        248.16248        282.79412
307.75903        252.01732        304.15843
315.21945        271.52878        309.78081
309.55741        295.23966        258.53847
308.83410        322.28325        262.94455
308.05858        318.68699        270.39608
317.48165        208.49039        318.45894
313.97292        208.46933        309.43674
313.67029        232.17041        296.28987
316.19964        242.84872        268.31637
313.99553        242.23304        280.74894
314.32740        248.60161        294.64139
315.54433        254.00044        259.95562
314.88053        260.03898        304.61948
314.27833        274.56954        317.83834
316.84175        278.55417        249.42004
315.03809        284.21470        308.54614
316.05848        303.90419        263.86642
315.47288        305.75247        293.51402
317.01747        308.00805        277.07689
315.74178        315.03533        271.10611
314.39670        312.33689        307.97632
318.43587        213.08691        306.21442
318.63104        212.24159        299.24962
318.78350        218.92977        317.21141
318.27355        230.87363        290.62156
318.74932        236.35495        249.10743
325.52434        230.86039        282.81749
322.11340        239.16393        290.11260
317.96248        250.32130        297.87913
317.78956        251.02770        306.10202
319.28538        252.15469        242.97829
319.16954        253.49784        252.34109
318.53844        262.62092        247.45485
325.50470        259.33864        323.62705
318.71124        281.97685        243.37018
319.37920        294.60015        251.12120
318.66122        300.05366        304.38320
319.14949        308.94097        307.82406
325.74379        201.58798        306.16128
328.61184        201.56277        313.90123
327.08676        202.08985        326.34448
325.40660        207.56664        297.60140
324.35471        208.43070        304.08376
326.44618        211.22723        326.34746
324.02201        214.77850        298.97775
326.27430        222.98846        283.88303
324.72707        231.64074        294.46592
326.86848        239.25149        251.31568
323.81622        231.83733        289.18355
327.46372        244.53616        259.99987
324.29304        242.88868        278.12971
326.35750        250.45700        318.72318
331.09504        251.02812        328.36362
326.26080        256.95419        254.39298
325.84369        252.40458        267.20086
326.14714        250.55044        288.77470
326.93795        252.66901        310.36903
325.12574        263.42185        310.82214
334.08933        270.15531        234.42042
326.15152        272.37336        242.38644
326.42661        271.47093        252.53529
326.49942        279.45041        231.80853
325.41214        279.42898        238.42922
326.82415        280.49477        310.39005
324.57074        284.00270        243.64299
326.51299        287.57013        318.35425
327.34629        287.34116        302.02271
326.95869        296.64938        314.32240
336.47725        296.73283        325.41739
329.34349        293.71885        260.70782
323.52551        298.74981        304.00917
326.80607        300.69795        285.28408
324.13477        305.36851        307.54703
326.58051        308.05038        268.46071
324.87481        308.75882        293.66196
327.55308        309.02423        250.25036
324.64562        313.82795        286.59752
339.77734        322.78847        294.61753
324.00250        314.08218        300.15591
332.63038        193.14953        300.18800
328.41004        204.75322        290.89229
326.39606        208.57569        308.97788
331.51232        213.52944        291.66598
333.52377        222.36425        296.92435
328.48830        216.48756        304.16452
329.31168        229.15604        246.10779
328.99175        233.06212        242.91008
328.55728        238.41706        284.72391
328.67032        243.55678        318.73855
328.38273        242.81694        326.17372
328.57024        250.29047        279.08138
328.99774        252.49829        244.65687
328.31876        257.24584        300.20889
328.84145        258.44805        336.07628
328.79327        268.03362        305.05349
329.31165        281.78671        251.55092
328.50003        283.64056        229.41232
331.46156        298.82524        268.30436
328.58631        300.63159        295.49996
329.02452        301.95071        279.14702
332.44766        303.73279        327.92365
336.22717        316.41863        251.29395
328.70379        314.17753        258.43216
328.52314        319.83307        287.25518
335.49574        199.35420        296.91241
336.17657        200.36007        306.31726
336.37217        208.99315        288.97767
333.86370        208.73214        298.94716
335.63376        221.36068        282.28887
337.32083        226.55052        252.31514
340.19933        228.72045        261.70403
333.29776        230.89519        272.87059
334.35922        237.50836        255.13080
335.99350        232.69033        278.70109
336.06228        234.30192        297.51867
336.56517        240.14047        241.27174
331.77411        236.19958        268.93068
334.12745        238.61929        277.51722
335.66611        245.50377        319.25087
337.84429        242.01645        364.81495
337.16548        245.89959        292.67768
336.02318        251.41668        259.69579
334.45151        248.41840        303.80322
331.70681        248.61379        308.89017
335.33107        252.28184        248.53435
334.52927        255.95217        278.53969
336.46023        260.28608        289.67319
335.80913        259.57609        307.86047
337.11439        259.84637        322.55775
336.15697        263.34895        332.19860
336.15196        261.36407        259.98225
338.22395        262.42713        270.70602
333.73834        268.37150        242.54938
342.25674        263.73875        226.12970
336.88649        271.17412        307.98641
336.21049        279.35627        227.71651
338.23394        284.37113        240.08319
334.73502        279.18365        259.92988
337.77887        279.19698        296.44933
336.38194        283.08824        317.29622
336.55592        290.67158        301.29366
336.35325        287.80926        326.03643
336.70420        290.68010        271.28333
332.97302        294.11839        290.65463
335.26734        295.87619        318.28601
336.01825        298.44733        280.00242
336.86331        306.46938        241.51168
337.21128        309.02872        261.10163
333.98085        304.31849        318.55621
336.52124        307.20175        324.44948
334.34055        311.84722        279.57477
337.67291        317.02964        286.82798
337.09488        325.79816        278.47642
338.69607        193.21958        296.52947
338.89852        215.63397        352.67463
338.97307        222.90984        361.19984
338.38191        233.59613        287.34131
338.61667        232.91593        358.02425
338.18626        233.02075        363.30027
339.14707        238.42299        264.49637
346.22242        241.26932        358.86387
340.21315        245.27744        251.72493
338.85448        245.60216        357.03411
338.25598        250.63306        242.86060
338.50266        246.40019        284.28577
338.02858        252.69911        267.68765
337.98656        252.84623        302.29544
338.56931        252.39455        363.99526
337.99040        258.96660        252.93427
337.93251        262.58255        278.46308
338.53882        262.51474        308.91537
337.69882        270.57643        267.92682
338.38318        268.71396        278.75802
337.81292        270.14181        287.20617
338.35588        271.58678        296.93139
339.09129        272.93828        228.10326
338.01955        272.20329        248.33907
337.97234        272.13328        262.77175
337.47757        272.87499        273.11842
340.37745        279.02332        252.51384
339.22650        277.95504        269.62210
338.14717        278.73846        308.87695
345.30501        282.33243        229.55717
338.19119        284.18162        249.46627
337.86161        287.07124        289.15852
338.00710        283.93346        309.33128
338.35492        288.90643        335.13632
335.78378        294.39979        308.33255
339.26448        298.46173        262.33799
337.73672        298.47699        298.36103
338.27632        304.78552        288.81106
338.29298        302.06222        314.62604
335.98736        308.36311        284.59077
337.94182        308.82913        296.32650
338.05933        311.13075        306.19038
345.22765        313.50144        239.28978
338.62439        318.10475        242.71792
341.28698        318.70619        278.59410
338.05451        326.18363        273.38799
343.91845        191.67853        300.00240
343.95247        198.26826        288.89233
347.62004        195.83343        296.72000
343.91576        202.46917        311.47687
346.47003        207.02492        294.18830
347.74879        222.08605        357.49844
344.02310        225.56844        284.52733
343.50968        228.92638        249.06055
343.99782        228.64323        296.31422
345.22154        235.08066        254.23528
344.27171        233.15948        288.15794
349.41760        231.35504        358.83122
346.00057        239.54554        245.78684
344.30217        238.22158        288.38526
343.79626        242.79168        321.35843
346.48279        246.47372        286.96725
344.12602        249.14859        324.20103
346.03007        250.63754        363.97092
344.02941        255.43336        328.25308
346.42618        254.67641        282.74052
343.80955        261.23328        319.08221
348.13786        258.46944        363.71436
341.55374        262.48122        252.99970
344.43038        260.54682        303.93625
342.33387        263.00706        330.40561
347.30658        269.80645        231.32441
346.81091        266.00018        307.08200
345.01882        273.79196        282.80780
347.47715        273.00462        295.08496
344.04655        276.04591        241.84951
347.44277        282.16906        288.43594
343.53623        288.30994        268.07564
349.24657        291.43980        278.34588
344.35222        291.53483        284.22112
344.03653        290.31278        333.80215
349.24594        290.77377        268.62247
343.28965        294.58264        318.49222
343.84939        300.24361        242.63662
342.46280        298.64636        290.52478
349.40938        307.05909        245.90115
344.43384        304.20155        315.18758
346.71402        306.06784        327.74987
346.18641        306.91095        255.89882
343.52897        309.42931        265.74043
344.91955        315.38636        263.59236
348.23837        317.94739        251.80813
347.67129        192.50990        289.16658
350.39064        204.54995        288.28704
353.65112        220.88018        350.17542
349.90354        213.22791        288.64178
350.79683        212.64012        353.76881
347.97713        232.37722        304.46479
347.33030        232.38994        348.09553
348.06397        236.46143        344.30688
350.22633        248.32961        346.77652
347.90158        258.67040        267.50427
348.62102        261.52293        293.30112
348.07013        251.91423        356.53002
348.74841        256.87090        348.73583
353.88767        259.51358        356.65837
348.71258        262.03911        357.46814
347.83693        268.10917        263.70295
348.21000        271.88387        252.95162
347.55893        273.17408        258.38709
347.76275        278.43488        261.70931
349.17641        281.57626        298.50830
347.89898        287.47095        325.59390
350.15267        290.29524        289.00124
348.71624        294.11070        262.06788
347.46662        299.46952        252.63989
348.18971        301.58205        238.57753
347.68975        303.64499        282.68027
348.72509        309.31346        284.09374
349.85642        323.17288        278.32931
355.71177        197.03080        294.06103
354.97672        207.53383        313.93715
355.92768        206.39765        295.80740
354.34456        212.53562        300.85175
356.31073        212.51350        347.98690
356.61389        228.68873        316.41389
354.41981        232.61358        318.15635
357.59698        238.44525        355.84149
358.32337        254.39202        347.71582
355.84055        253.28634        358.07185
353.48880        253.13453        363.38883
356.11660        267.27841        218.03038
351.34593        262.26544        233.48547
356.78383        270.76705        211.55613
351.34361        272.42309        221.98765
362.50947        284.07540        336.91040
353.47510        299.28776        242.98703
354.88329        317.25641        235.96868
353.59067        318.22422        286.43130
363.03380        191.26983        307.28735
359.16768        188.79309        317.73821
358.99602        198.72732        309.42689
358.53519        198.55303        316.37925
358.67746        202.12410        303.94408
366.08898        201.64037        315.86129
360.30679        207.24462        289.13003
358.34348        213.28972        316.18326
367.27310        220.16773        271.12767
358.86429        228.85229        308.19801
366.69408        216.56325        344.40631
357.97750        232.40995        326.31614
359.90727        231.47577        345.56816
357.54849        238.19886        347.90392
358.88487        242.43285        243.35677
358.56552        248.42703        354.34161
364.98447        269.09603        326.18486
358.12025        282.08635        324.32307
358.20882        285.81516        332.74714
362.11981        293.19564        337.07371
358.05708        300.06958        252.26426
363.69954        305.09283        303.61990
357.90200        308.63931        296.38390
358.92443        313.81143        299.02410
366.22160        183.23325        316.35345
364.80132        193.08188        318.39261
363.57367        202.04996        299.21037
364.01450        209.28419        316.72709
364.26161        212.99602        272.95085
363.97581        213.83926        278.52591
363.33574        210.83211        306.04757
366.49347        216.31296        284.21559
363.72747        223.01113        313.52896
373.32313        229.71990        270.75313
363.70868        228.54071        308.19743
366.98758        229.31424        315.24978
366.45263        233.49394        308.17576
366.65278        235.09908        329.62873
371.69168        241.29499        236.10754
364.06740        238.33791        239.25172
365.73458        238.55680        312.96112
364.09360        242.15349        243.63933
364.16353        242.73181        327.77569
363.37638        243.14293        348.07368
366.16664        250.56264        234.16573
364.40647        252.55653        245.64871
367.02470        258.24086        241.02885
362.17800        259.11134        318.91008
368.00911        271.92672        210.83933
364.44685        277.94107        206.50452
368.82087        278.84777        334.67172
363.63525        282.19303        263.01622
363.49161        283.64529        268.43873
368.07784        281.93314        326.55187
366.16266        291.00072        327.82909
364.80728        293.86047        243.40192
367.44423        290.60377        261.77505
370.35215        298.82949        254.26382
363.33173        301.52329        243.33854
370.95241        316.02758        287.42582
369.43790        307.07080        299.29259
365.28535        315.31461        296.41475
368.75621        171.51416        253.29060
368.21485        188.57015        314.91033
367.78365        188.79486        323.85470
367.59872        208.19595        279.10603
372.87105        207.52659        285.71711
367.85479        213.53154        288.43387
371.26638        216.25851        279.09998
367.59536        220.72525        339.63366
367.51553        224.13852        278.17027
368.13454        223.65341        299.04623
368.13593        226.71261        304.90188
368.11650        229.90527        262.62295
368.76218        228.04177        332.50103
369.02224        233.70863        232.35582
368.21305        233.53140        242.07513
375.42131        226.60688        347.18103
367.62508        237.67154        350.66188
368.02878        238.60383        244.79071
371.72192        241.24062        306.17659
368.88988        242.04434        258.87154
367.82056        248.41555        243.66932
369.81185        250.91818        253.00063
380.75452        248.97123        319.08927
368.13900        249.84337        327.91084
376.28961        261.14013        250.54174
368.28692        260.38985        313.60458
375.68456        261.98575        318.11743
367.94253        268.34360        244.74628
370.72392        272.63667        251.55955
370.61722        279.23787        260.01939
368.47947        282.50238        208.93621
