84.96500        80.04234        149.96835
85.37090        90.32856        170.04578
86.13060        94.43329        164.34459
85.71019        112.14450        184.95172
82.43265        119.40144        182.92201
84.56842        132.49928        166.02775
84.68319        137.98224        179.06567
88.16997        157.58355        114.31443
87.88509        159.28708        127.91571
87.92455        157.92750        138.54071
87.71032        163.80392        102.49508
85.14734        166.22737        119.63504
87.18885        168.46083        127.84408
85.43176        164.96042        169.55351
85.13810        169.27656        112.35298
87.23563        175.15796        106.53765
87.41652        179.69009        119.27487
89.51123        188.23345        108.25113
86.98858        188.90508        99.76485
84.88143        191.31638        135.28179
86.53930        199.98486        121.33031
84.73830        195.07016        130.03920
83.05446        200.42038        145.87935
93.32048        87.50178        157.87533
93.63759        94.49242        174.25841
89.40974        99.91300        158.04784
91.00586        104.48625        168.78499
89.08913        104.69311        180.84945
90.89375        116.54429        168.31638
88.96921        122.72346        161.35402
92.93717        119.33282        182.34695
89.85133        124.75629        174.69087
92.51613        129.75045        165.30977
89.73924        130.81682        177.91022
88.33431        140.95294        166.03595
88.42887        154.65744        174.27509
90.38278        161.66900        197.18517
87.55696        164.74668        177.20002
89.04022        164.11051        184.63127
89.77296        164.00435        190.17839
89.47187        174.69213        96.51070
93.53429        177.70630        132.14952
89.96309        191.56712        126.92804
89.04027        197.34057        108.98669
89.17736        195.24110        140.52621
88.37256        199.40837        144.28777
94.37325        89.61276        169.31822
98.81690        94.27684        156.28063
98.06632        100.23660        165.60978
92.53631        100.85781        176.49119
95.62732        107.99406        175.66205
94.44429        114.26851        179.80879
94.99212        124.49469        183.84516
94.66731        134.69689        167.51575
94.53034        133.19711        188.05708
94.72040        157.37151        114.35000
94.62669        158.03002        127.39838
97.17456        154.32579        135.97744
94.53261        155.00334        147.70213
94.42534        164.01864        117.68761
94.56328        168.20369        137.64825
94.55892        174.17970        95.80149
94.50142        174.29694        105.80275
94.68447        177.72309        119.27252
94.77430        178.53280        140.29240
94.52776        185.10084        94.26259
94.38370        185.27701        119.29061
93.76276        189.08940        134.84209
94.86171        190.05502        141.53464
98.79734        194.70938        118.77616
95.88225        199.36859        103.65387
94.90927        199.40483        135.20364
99.90491        89.16300        164.08797
102.23864        100.81643        104.71228
99.78772        100.18127        123.57470
100.08918        106.20955        110.19168
104.77731        107.71131        124.61636
101.91819        111.10799        98.28384
99.79934        112.61958        116.42886
100.43190        118.11750        136.21697
98.68824        116.23530        169.65522
99.27215        122.09180        124.00715
101.41445        120.45606        176.35136
102.01769        124.88853        139.06036
98.54967        129.63086        130.05612
99.35382        128.88925        182.84439
103.21804        138.79884        163.86256
99.72656        155.93655        145.38633
99.63745        161.29395        101.68529
100.76572        157.46961        126.97737
99.82405        166.03027        124.89477
99.91238        165.95539        137.32015
99.61347        170.63046        95.59760
102.76838        169.12083        107.76883
99.85574        174.41754        104.66849
99.65646        176.65687        118.60570
99.81584        172.73699        129.97223
101.63238        180.85022        100.68949
99.05433        186.71926        105.58787
100.06979        183.18335        115.40342
99.87336        182.32164        131.14108
102.41720        189.58942        128.35927
97.68451        199.57981        128.04377
104.90751        89.81457        164.80402
106.15665        94.98354        119.41561
109.55537        104.65836        136.83169
104.86340        112.47035        147.64740
105.23221        110.38006        179.76741
104.50662        116.70537        107.67502
106.65314        115.99015        129.70793
105.08635        114.29617        174.97957
103.95250        119.51385        149.53211
105.95546        124.76996        119.52308
103.13121        124.55670        150.01775
103.98805        129.83043        140.20891
103.74627        129.85979        150.86053
104.15667        128.91831        190.10185
105.02073        134.75375        140.49739
103.83613        138.15667        151.53652
104.90558        151.66509        134.69609
104.93331        156.56582        143.85157
103.68156        160.03580        113.09992
107.90537        165.18288        125.86579
106.90724        165.03626        135.55018
104.93034        169.17551        129.86774
104.96559        174.39218        100.83828
107.45125        174.75348        117.69044
106.92229        176.04197        138.83174
107.52951        179.20892        114.14177
104.95778        179.67978        130.16734
107.70859        188.04445        102.72965
104.49254        190.82105        109.86322
109.25825        189.00244        136.69594
104.74203        194.96513        100.77408
106.92896        202.61277        115.00044
111.39570        78.87202        105.06169
113.00777        79.09875        116.85797
113.11086        84.13962        94.75502
110.92072        87.76730        165.70623
111.91632        89.38018        86.10593
114.60939        89.41268        125.66508
108.99545        91.71257        176.41484
109.79345        93.32827        114.50044
108.94307        94.43833        124.30743
110.18296        94.37144        163.09971
113.65517        98.81755        106.89116
109.20322        101.09271        170.47188
108.93508        109.68562        95.61386
110.35218        110.04541        140.34947
109.72559        108.80183        149.29120
109.70722        120.65557        134.03129
110.18475        119.43768        159.96933
111.28926        128.56820        67.01393
112.52448        126.80768        206.32014
109.55215        129.81603        126.83704
113.15306        141.69056        60.08479
111.11196        146.63234        109.87431
111.25615        143.12105        157.27608
112.40534        142.33336        168.62694
112.22611        151.10103        133.85622
109.81790        151.69091        160.43452
109.78890        149.27222        168.55139
112.24496        158.41055        140.56233
107.42496        165.44095        102.94929
112.02832        175.61448        129.45321
109.88581        184.80177        125.06155
112.06573        189.04076        118.88399
112.10012        197.95143        126.12111
115.73742        74.78402        96.94058
114.04530        80.36558        89.84980
112.82469        86.41818        104.21509
122.83555        86.27317        136.82919
114.39904        85.39667        170.60623
114.22904        89.14147        113.23728
112.60689        89.59036        188.24359
114.46010        94.68271        89.09028
113.90207        96.69091        161.56425
115.39548        99.67457        156.73305
113.18272        99.53388        187.45266
113.34387        106.76121        102.85012
114.08160        111.82302        156.47033
115.56153        111.18365        182.85617
119.81037        109.81688        190.03103
114.37603        117.34047        104.95734
115.33972        115.50862        114.38091
115.59502        114.07083        119.48859
112.73192        119.82871        146.46407
114.25334        114.60049        199.39235
111.76511        118.36365        95.61058
118.38837        119.54056        198.40584
114.69238        124.28445        121.59187
114.99462        128.35115        140.13962
114.43481        129.31199        96.71765
115.59639        129.60054        215.08313
112.87709        139.71642        70.07804
119.40829        135.14682        98.36349
112.26580        134.71022        153.80766
115.98774        135.07308        164.69656
114.56140        141.24115        114.53626
117.80591        144.73653        99.75593
117.95253        150.12270        119.28874
115.31224        169.99885        102.87424
118.24982        166.65274        111.02328
114.44934        181.52007        124.90057
114.46654        197.93562        113.70977
119.52934        75.23641        121.36374
124.08760        86.68631        118.53586
121.62263        87.90328        87.98049
119.30442        84.73862        110.24735
121.32656        83.07070        158.88358
119.67315        89.49436        80.17009
122.89115        89.53423        129.69945
119.26422        89.45054        177.46174
119.44102        94.29781        77.70743
119.51821        93.43827        102.78803
119.55156        99.81234        172.18971
118.71383        99.50987        79.77278
118.38564        98.89203        114.53164
119.30002        109.46367        134.26092
117.63925        112.55942        124.76822
122.48237        119.25611        207.99236
121.41988        118.58277        134.20851
120.44034        119.46256        154.74706
119.75538        119.84615        179.79141
121.57974        121.98682        64.46860
124.96474        126.11841        91.69397
122.24373        124.68723        104.97918
119.31152        125.05730        159.54747
121.56983        128.20465        70.69260
117.96846        129.80437        161.80096
125.49009        131.51102        190.40934
121.25895        135.04503        75.23144
119.83873        134.66261        85.50463
119.44685        134.91840        145.61645
120.61789        133.29722        183.13243
119.56318        133.32457        204.68707
123.06038        136.42646        213.03188
121.77242        142.59909        79.75422
117.66671        137.44215        119.13765
122.14970        139.42788        149.85486
123.23760        141.89935        194.12591
119.91302        143.42324        104.71300
122.75607        152.86097        109.17192
119.06584        161.70818        104.83583
117.65406        160.32600        110.24322
119.30573        160.07981        137.62876
119.12958        164.73480        99.78608
119.39575        179.62598        108.54095
122.12515        185.63407        130.38076
124.10752        75.72116        94.53151
123.55676        79.50043        106.54639
126.42320        79.48476        135.02825
125.84992        85.35734        99.64517
125.19497        88.00200        152.95822
124.45243        90.31892        104.52676
124.72282        94.57656        153.01012
123.55215        96.46350        182.61358
125.68916        99.52649        89.33199
125.01106        98.72203        138.92336
124.97620        99.45674        149.95177
124.47179        105.23479        149.94366
128.06776        109.57628        177.30302
124.83102        108.82981        184.50288
124.69232        117.21237        174.54959
124.07173        121.65635        143.05385
124.95018        130.31732        154.03017
124.70174        122.77669        180.85364
127.16260        135.22252        99.74235
128.26902        136.47209        201.69298
125.64274        140.14119        68.66242
124.54092        140.19343        89.66900
124.27846        140.95136        111.07477
123.53136        140.01598        163.11242
128.61401        144.28828        209.25005
124.55144        148.73993        80.78059
127.32484        150.81470        90.13541
126.16798        146.58373        118.93775
124.65869        153.23040        123.37116
124.69840        155.12480        102.87921
124.80891        154.88557        159.54608
124.84572        160.16066        98.24046
125.91348        163.95453        135.44856
125.87098        169.35796        103.76631
130.54154        175.75179        112.54616
124.62894        186.30384        111.20193
125.06155        224.42246        199.75267
131.46385        78.40086        130.60818
134.43025        80.15532        154.25733
132.97327        86.72117        163.48889
130.07716        89.81044        128.02124
134.19526        89.60020        148.89448
128.78250        94.47523        94.50688
129.66124        93.41586        138.96878
131.57082        95.54324        162.09702
130.02362        95.77785        174.82700
129.65905        100.00098        48.14813
130.19745        98.68945        179.72165
130.22125        107.95630        83.39170
134.16476        113.23256        187.58436
130.04784        117.79437        174.78366
126.92080        122.35533        198.27704
129.26755        129.11470        76.72311
129.91093        124.53011        180.89384
129.89091        129.54250        55.71132
131.91723        129.96477        195.32089
127.81598        129.74936        208.07202
128.61269        134.93605        64.24924
130.74342        135.11013        74.58077
132.97810        132.87168        110.27958
131.89770        144.66825        76.44019
132.99705        140.92428        89.52607
129.47417        145.68307        189.95373
128.44781        151.58352        143.01479
129.80636        151.39458        111.19445
130.96892        154.96909        131.24407
131.05662        163.26184        105.07718
129.77506        159.61032        149.53604
131.89582        161.68155        109.96881
135.81238        170.23253        117.81199
129.74126        178.56423        153.88826
130.05827        187.09777        108.82939
129.90605        234.35364        199.19213
135.00264        76.01589        139.99818
133.19649        80.10034        162.97235
139.70958        85.28863        128.00083
135.17486        89.50846        89.77888
134.97783        88.58270        119.27790
133.71171        96.78640        85.57704
132.24635        99.92030        184.68993
134.79269        105.03952        49.81065
132.96170        104.97010        62.56742
135.01547        105.76872        169.56137
134.94050        102.81685        188.27004
134.99426        110.17161        51.10302
134.32561        112.25853        61.75432
136.20411        122.20476        71.85555
135.37393        126.95522        98.59643
138.50313        127.82204        180.02724
136.66408        123.17638        190.35935
134.94688        129.86357        94.21930
134.82114        135.29104        102.01805
134.66174        139.06586        55.23453
136.64884        139.21487        185.51380
136.11953        144.38150        94.50592
133.03460        146.29803        148.68916
134.43716        144.39937        196.93968
135.11037        149.97885        113.25465
133.17356        149.47265        205.75629
137.45961        156.52391        93.57132
133.74292        155.95922        119.84962
140.53069        154.95724        138.01787
138.51173        158.17155        149.32321
135.95776        170.55359        102.72481
135.68885        173.79967        150.23209
137.67334        169.21511        154.82858
134.72223        203.12690        149.15228
134.93822        215.32670        154.71721
134.80769        224.49774        168.56861
139.87503        74.81997        122.64847
138.87933        89.06583        139.99224
142.33527        86.72831        115.35366
140.46487        100.77787        47.35482
138.85580        103.14271        70.17439
139.82517        106.72893        89.58375
138.25111        105.16115        174.23684
140.07563        104.91755        187.05503
139.92522        109.00135        74.58234
140.99996        108.84319        79.65217
139.05045        114.07835        53.97439
140.31358        117.85274        179.92725
138.37381        119.44404        59.35042
142.36243        119.03998        184.80247
140.16705        124.37628        59.92754
140.10120        128.72203        64.67172
138.62359        139.94710        65.52713
140.76116        133.99301        75.07095
136.46699        137.29090        175.35990
139.34621        142.67239        102.12962
144.11272        146.25035        129.75191
139.91243        146.47675        139.89011
140.45433        149.44719        150.64006
140.40239        150.30521        194.54081
140.93515        153.73509        102.75925
140.09795        154.82463        129.77354
138.06318        155.90399        200.62496
137.35813        159.94824        119.23653
138.50857        162.17328        134.62929
140.75341        167.14778        146.24944
139.86758        164.07950        159.62065
138.22071        174.84970        144.25475
139.99232        179.79526        149.73257
139.86398        184.77428        155.98486
139.88736        195.21576        144.57394
139.92300        207.28099        161.39439
142.41639        237.76771        185.23698
140.48736        243.91191        140.42454
143.34110        74.78481        118.43218
145.46725        89.78622        69.39698
142.44900        90.53761        150.00115
144.26451        91.42897        159.97990
144.72571        97.09401        89.48088
145.01093        101.54232        59.54756
142.34813        99.90330        79.84830
145.70147        98.81827        124.45433
144.32642        104.64391        49.67925
142.57387        108.84721        180.91221
143.49053        113.95073        61.78767
145.72183        112.60487        77.08745
146.97778        125.45900        167.86513
144.89596        136.05255        160.91094
144.74312        145.51362        115.46784
143.38834        153.21659        145.10445
145.68154        154.99223        123.57397
146.27987        165.32246        194.91461
144.40530        174.19796        161.51593
144.40910        181.20857        156.29580
144.24130        183.73419        144.77158
142.58853        190.46463        143.55558
145.33606        202.58048        139.21364
144.05941        219.85579        164.16266
151.11074        74.29644        116.75891
151.70552        79.84293        129.29629
150.01997        85.18355        155.70664
150.96650        89.44345        105.04025
149.29651        89.22508        124.36270
149.65949        94.60513        72.63379
148.41921        94.73412        109.87700
147.53973        96.44770        114.55814
148.88068        99.95958        73.77427
149.39054        105.08376        74.61371
152.10853        118.95144        170.80033
149.66142        124.40195        159.89851
148.60322        124.48086        178.55822
148.96689        129.94493        178.42929
149.64966        140.50331        147.86584
152.24061        135.08532        154.89537
153.86739        133.85832        185.19693
150.08100        139.10083        122.05513
155.84204        150.59941        156.11988
148.70650        144.59542        185.03687
149.38480        149.99136        119.58624
149.94055        154.96257        135.02672
149.37655        153.70576        183.79419
148.52228        159.97316        141.01995
149.62325        162.65533        179.54824
152.11471        158.47122        192.28035
150.73354        159.99384        207.76299
149.79575        161.43091        166.28628
149.88488        167.76592        174.82820
151.55249        169.23313        184.71071
149.83566        169.09960        199.49991
149.28829        185.05750        138.31196
149.97736        184.83463        144.56116
149.25422        191.79836        154.14549
148.50315        195.38509        133.26901
149.76437        198.40364        144.70735
149.70082        230.51022        160.82683
147.75411        238.99711        172.70020
155.85787        86.32190        114.51344
154.93278        84.92970        157.82342
156.07659        93.62373        124.82246
154.79981        100.44759        151.21128
154.37119        100.18337        159.19866
158.20277        119.67950        179.78902
154.88283        125.96693        148.55636
154.66822        126.44446        158.30432
158.58329        124.34713        189.78115
156.11744        136.08245        142.02820
153.83900        133.77645        165.10554
156.98197        145.32477        109.38736
154.69858        147.01520        119.19350
154.90709        144.34259        129.44458
155.55110        148.13054        194.23168
155.16804        149.69310        124.82729
153.72099        149.45844        129.86247
155.01603        151.11269        146.33199
154.91935        148.73504        172.52370
155.01891        149.85466        182.95549
154.48410        154.75538        166.86902
155.15117        157.25795        133.87533
155.02048        158.83148        176.46865
156.83289        160.85285        203.33785
155.21251        164.78905        106.04559
156.67031        168.10699        117.98349
159.39739        169.38736        172.28029
155.91387        168.18955        194.13337
156.91044        173.69233        204.89050
155.45560        169.20730        210.75319
156.90188        175.09079        107.14126
156.78602        181.13419        124.69034
154.42694        184.82994        148.63319
164.96281        182.43584        189.03933
154.73101        188.21628        132.11452
160.27254        188.01693        140.79132
157.35343        76.07725        124.40814
158.72187        80.03420        119.76032
158.88651        78.10669        128.96525
159.89350        86.08858        109.97688
162.53935        94.77857        111.87794
159.06965        94.54160        119.38467
159.93545        100.03517        160.09354
159.90248        103.94333        173.43175
157.92646        108.89974        164.26599
164.32679        126.37388        148.08136
164.64300        125.49982        160.61280
157.87204        124.97260        173.29706
158.84772        129.78165        176.54210
161.60949        134.88098        180.33551
161.26414        134.39238        193.14704
159.76958        140.30211        164.77266
162.16471        142.67062        182.03498
161.78058        144.21977        219.11856
159.76163        156.37571        116.05155
159.97871        159.95045        124.55347
159.77885        157.28265        174.46547
158.83130        159.09720        179.77654
158.88206        164.06617        99.90940
161.14591        164.92007        128.76201
158.89264        164.76985        163.83760
157.15002        163.41830        184.48684
158.69959        164.96680        190.24322
162.82150        161.78559        210.33905
159.57362        170.23237        85.35531
159.15146        168.56436        217.50364
158.97521        174.23167        95.65226
162.13932        174.95446        118.99740
165.58434        168.64422        181.68275
160.34520        179.40379        168.31946
164.73049        186.95844        126.48335
162.77036        185.35900        195.44173
158.78975        195.42982        152.88198
159.05681        209.43544        144.45117
161.82163        231.30290        162.83530
159.47245        254.44519        174.93726
163.14073        87.42306        105.56652
162.50458        85.52457        164.10985
163.89589        89.81528        129.48201
166.51101        91.94117        124.71970
165.15599        124.51310        178.96710
163.99339        127.99515        140.37780
165.89301        129.60236        188.55776
164.91043        135.32620        164.95210
164.01179        139.51753        152.20232
165.46318        140.27098        190.24087
164.04973        145.37478        124.69202
164.06204        149.36060        144.67054
166.11070        152.26644        114.75566
164.93841        149.47514        164.13575
165.23947        149.67850        190.37759
163.31287        155.86019        179.57212
165.16374        155.09346        185.00670
164.69488        161.52360        150.31988
162.97763        159.15866        163.21316
163.84599        160.01986        191.31352
164.69519        165.17500        109.80955
164.94499        169.55447        124.54331
167.14485        169.08419        114.39831
165.26852        170.11636        165.25049
168.35040        171.40065        198.53633
167.40290        176.60254        129.99971
165.07278        174.21674        199.34883
165.08560        177.80586        205.05215
164.05868        184.88056        177.93199
165.06038        189.98614        169.15071
164.74631        194.04455        173.57830
166.35578        200.59056        185.00186
164.23342        235.03836        154.82864
164.05910        239.95911        176.68036
169.40828        93.74251        120.29299
169.60819        94.78062        135.44229
170.41208        99.45004        133.07796
169.90971        105.23139        116.94871
169.03402        108.39211        171.94026
170.61987        119.63423        149.79927
169.13944        134.95082        142.48813
169.81826        135.26014        162.34790
172.17937        142.59668        130.32969
168.89495        144.63191        153.82070
169.54657        140.18821        218.06805
169.30221        147.34479        184.49916
169.11267        149.84993        124.99586
169.45679        149.59169        161.19865
169.83580        154.38971        139.21912
169.01536        156.52847        159.23994
169.75335        161.15710        140.08409
170.38623        159.73813        203.02018
172.52724        168.25747        119.24995
170.61715        169.49277        190.15706
170.96715        170.35868        212.16923
172.84396        174.83254        190.88030
172.75330        180.82440        117.94309
169.83881        179.95883        179.32639
173.01973        178.64321        207.14365
171.74815        181.69029        165.92434
172.33705        185.15627        199.30654
173.62559        191.54314        193.08708
171.48549        206.11780        184.96030
168.68696        249.13635        154.49241
174.37622        89.21344        133.07557
173.62033        103.93095        109.99230
174.66353        110.17988        170.47516
172.69731        128.26002        178.01537
174.65830        134.49542        150.63597
174.55589        133.09476        160.31043
174.54235        142.57932        143.77761
174.26236        142.35980        158.01868
174.35202        138.11534        218.10802
174.48678        149.65875        146.14628
175.23552        153.10742        187.61427
174.60153        153.23785        126.71473
174.70240        155.98805        149.11266
173.18833        159.29946        112.37001
174.16539        160.15497        175.79916
175.34289        159.69928        186.10760
173.47970        164.18425        189.97854
175.74778        167.49120        144.30492
176.63578        175.50791        179.29728
174.57245        183.89494        129.47719
173.68906        185.16534        144.40051
174.03786        186.55182        151.17566
173.76217        189.76599        124.43385
176.58540        195.10901        225.74243
175.54641        199.53049        156.54133
177.21451        204.56182        194.55535
179.58287        100.19172        122.80886
180.98602        107.18987        129.06563
180.88194        115.45476        144.75397
178.49008        113.34482        169.27713
180.67560        117.61239        149.77124
181.47220        119.39261        156.50881
177.06181        128.87492        149.77042
178.74024        134.83897        130.03336
179.74489        135.23437        216.78636
180.80646        140.38876        124.63200
178.89067        136.45416        154.68566
178.59406        146.53870        215.08220
181.75782        145.70197        222.25589
179.55494        150.28808        123.85825
179.88901        150.64629        154.67749
180.88569        155.80975        136.06776
179.98164        155.83312        205.05116
178.78579        157.02109        209.85011
177.89468        157.94532        214.77708
182.38860        165.45097        135.67110
180.06916        162.38280        173.56579
180.21229        172.71090        150.05829
181.36330        175.30390        131.55899
178.91057        174.79497        155.02736
180.60133        180.87284        190.08085
181.60594        179.65761        147.67132
179.81502        180.15752        195.24005
179.73511        179.54854        214.69814
182.83314        183.43708        159.48377
180.40350        185.74436        169.30866
178.62488        184.67671        185.08376
181.91174        189.94393        143.54783
180.96862        189.18886        184.71428
181.85753        194.97162        141.17308
179.78444        194.85185        165.14848
180.77816        202.59727        190.17831
183.36699        96.19563        134.82017
183.72484        109.11873        124.66168
183.78025        119.63425        130.98654
185.05004        123.47965        189.45758
187.09679        124.74840        144.55953
185.53871        128.82471        127.21974
184.09194        129.79637        138.11797
184.20233        127.98189        151.01408
185.97200        128.75656        184.99835
184.13717        135.15703        145.71755
184.54395        133.29168        215.34381
184.65569        140.26726        135.19064
184.16386        144.30893        149.80976
185.59362        139.96532        207.63348
183.16022        149.57070        129.85202
182.95872        154.95451        158.75284
183.92099        154.81326        179.62492
184.79375        152.97724        227.63051
185.26891        160.53203        146.63104
189.55441        161.21667        216.58270
185.06282        169.59090        166.30000
184.47414        169.15409        214.18053
183.97255        174.62112        167.32547
182.75003        179.56375        168.23304
184.88029        177.94633        219.08434
186.49594        179.96342        228.95694
182.85187        185.05411        145.45054
184.75952        186.08430        214.89853
184.80949        190.05151        178.83039
182.84190        194.10606        152.96736
183.71305        199.37393        149.41068
188.65513        198.47915        179.36404
189.75300        199.65461        192.85439
185.04796        202.74449        158.87055
185.03378        205.07742        164.80827
185.00644        209.74104        179.52324
184.59098        213.05282        189.07919
189.64084        85.43934        130.16749
190.14647        94.64803        128.05994
191.59571        117.77960        156.00048
188.77730        119.41092        195.37173
190.02173        123.45828        140.40277
190.44636        122.94443        176.68561
189.70549        128.57851        160.04340
191.81387        129.86537        196.24618
190.02472        132.19413        130.13858
192.11529        132.10337        182.81957
191.16463        142.04647        139.99259
189.72378        146.25162        218.02697
188.14462        149.67137        139.99475
192.75147        147.90530        147.79067
189.70512        155.20249        196.97745
191.70178        159.73229        134.57541
188.99422        160.06215        139.97748
191.00087        159.76036        188.81936
191.87278        159.87161        195.22065
189.31810        167.55882        156.08289
188.51126        169.21296        123.00436
190.52133        176.69969        150.04123
189.86754        179.42764        129.49304
189.85184        179.82532        159.91933
188.43678        179.66150        177.91187
189.99865        178.71121        219.21001
190.30087        184.59361        205.80580
189.96257        189.22613        158.11143
189.52322        194.32167        167.95211
190.20910        192.68113        190.00901
189.96235        194.29146        210.86239
191.10049        190.06410        223.35028
190.16423        195.06732        144.71610
189.09284        204.66583        193.99605
190.03756        207.82687        177.90505
194.11588        111.14526        129.92341
194.33291        114.80419        143.79577
195.53395        114.16656        191.89388
194.05753        120.65617        134.68822
195.35217        118.70740        170.66156
193.29429        118.25560        184.65944
194.76690        128.19946        149.44257
193.12962        128.71966        189.74223
197.43912        134.36972        132.60516
197.71294        140.68919        141.61789
195.22017        142.74421        221.27351
193.16689        143.24039        125.09944
195.06006        144.83885        129.75662
198.11095        144.45196        208.80934
192.44624        154.52472        125.82059
197.80212        149.73147        134.93522
197.48590        148.96626        175.25056
197.23990        148.42328        196.89497
195.27294        152.17002        205.44950
195.45648        154.49844        220.46820
195.43608        163.37658        123.47332
195.10199        162.00907        148.21562
195.24760        167.05444        193.29221
194.97481        166.88685        219.52163
195.10841        171.49136        120.56824
195.12047        169.25756        144.50992
194.95469        174.32983        127.09074
197.37330        174.31776        190.94506
197.68396        181.94963        163.80770
195.16939        179.63399        199.39082
194.38682        182.70595        214.90915
195.09213        184.56308        139.87814
195.14120        185.00525        209.81290
192.71385        190.11180        140.01554
195.18567        190.39251        159.89130
196.90140        194.73632        148.92688
194.97748        197.12712        224.52886
195.42549        201.45552        154.57134
194.02356        204.62845        149.71776
195.26799        206.19270        177.17718
195.23491        208.67202        144.23729
199.84669        89.31917        132.88020
199.82722        93.63090        123.02828
199.62242        95.02496        132.92883
198.21965        101.91320        133.93611
199.52796        110.32222        179.63425
201.74703        119.34702        173.63925
199.61639        121.30422        190.22898
199.54277        119.55081        195.36790
199.36142        124.40029        182.79850
205.80702        120.45848        193.33388
199.83662        129.97937        195.15138
198.47911        136.94823        195.29774
197.71977        134.06781        208.72509
199.37143        146.98247        149.69238
200.61792        143.42666        189.92412
199.70886        149.60042        139.95100
209.10584        146.61578        162.64961
196.78339        149.75778        183.61538
199.35544        148.95465        216.47708
199.61450        153.56960        225.07170
201.33934        159.17700        139.12884
200.62274        157.95503        173.50915
202.96030        158.87200        195.08169
200.77272        164.99719        149.36196
198.43148        164.90011        205.75043
199.34394        171.27191        134.88917
203.42081        170.02345        207.08702
199.79533        179.57005        121.52749
202.45343        180.89280        129.78965
199.83718        180.93795        154.28700
203.34405        183.48711        187.22018
201.39650        179.59190        204.85640
200.34949        184.97697        224.13037
198.94165        184.58923        175.11726
199.25730        186.62277        128.65792
199.77404        187.37855        149.87846
199.01532        193.46554        166.11284
196.65199        189.74079        169.56841
200.13170        192.66514        211.60974
199.45633        192.45478        154.88680
199.59101        193.23995        159.97363
199.26930        199.45059        185.01052
200.32629        198.57000        144.64323
199.53997        203.00116        164.85693
200.54013        200.13087        177.14336
199.27791        198.36420        209.00200
202.76372        110.09977        124.30310
204.52749        111.39038        179.55290
207.32638        118.63284        144.30731
204.99924        125.87427        165.14525
204.42916        129.95923        187.48275
208.32713        132.93032        154.04390
208.63443        133.55011        199.78762
208.74821        137.26122        210.39338
204.53993        138.06126        170.51617
207.81422        143.82579        139.12853
205.57415        145.89604        183.50903
204.36617        145.66690        218.91286
204.75495        149.83218        133.12310
205.11615        149.09950        203.06190
204.53479        155.87592        125.64926
204.72011        156.65185        184.89505
204.75438        157.46608        216.37432
205.59933        160.14831        204.70657
204.99908        159.68179        209.92761
205.84822        164.75021        132.78505
207.34834        164.75555        178.28407
203.59771        165.40207        184.69939
205.62649        164.00497        199.34648
207.34997        168.83950        117.39429
207.16380        170.40213        140.29146
208.24896        173.00990        164.81059
205.26449        174.18347        197.33740
203.56873        180.13977        135.20868
205.21249        179.58654        144.05799
204.78330        179.61262        216.64862
206.39137        184.10371        199.64091
204.74207        185.09261        205.84202
208.00568        187.30972        128.84236
206.33503        190.10034        210.15179
208.17266        194.71641        186.70293
204.35757        193.48598        219.16862
205.89811        199.94224        195.38666
207.30288        198.70705        209.68950
204.31951        204.73142        140.04893
207.50489        204.72152        150.58238
205.67606        210.17903        192.64430
209.00582        99.58662        133.77308
210.80053        105.03681        122.16525
208.02939        106.48396        133.89332
210.13296        111.73896        119.99573
208.91664        119.65034        154.93719
213.49042        120.90833        220.10092
209.51466        120.46814        224.75007
208.71032        124.70356        153.73713
211.19673        124.79925        164.82229
209.82721        125.01346        179.79694
209.87129        126.37746        185.05318
212.37911        125.66196        192.27396
208.83305        124.65417        229.75444
209.94250        137.46398        179.92136
208.60958        140.15591        195.27815
211.10943        145.67167        126.93772
207.94391        144.54875        192.21843
209.73787        149.73758        138.89797
214.90355        145.45810        176.00293
207.03563        150.19767        189.88591
209.79407        149.97307        209.87300
210.10060        154.70276        129.96881
209.51679        154.44467        164.98999
209.45519        154.68974        219.98601
209.71115        159.64192        119.11674
210.08516        158.99028        144.51512
211.60157        159.83004        183.74961
213.29992        158.71236        239.06703
209.63854        163.23336        165.19131
209.53985        163.26305        189.87128
208.42455        171.93690        126.18169
209.70432        171.48096        209.98634
209.81560        167.50119        220.55676
208.59461        174.74669        176.33961
212.43306        178.45155        197.46687
209.51221        185.13348        140.22438
209.23252        189.64598        147.71039
207.13265        184.85109        229.66574
212.36367        194.79452        155.15878
209.46200        190.81015        222.41152
214.66758        191.45113        140.18356
209.22174        193.58264        168.63129
207.21141        199.61354        149.39076
209.54973        199.90453        189.85216
210.09251        204.83237        185.14575
212.81008        210.00960        183.79436
207.79607        207.79579        204.80355
210.12475        213.71581        194.05866
211.33287        94.51894        130.13168
215.44381        116.88305        126.41835
219.67535        115.40032        154.73805
216.79718        124.73798        229.62994
213.92356        130.93596        145.00854
214.90199        128.66157        158.78219
214.66518        129.70860        201.47223
218.09512        128.74330        213.97744
220.47610        130.07562        233.83909
214.58783        133.13704        173.31186
215.25618        135.63870        188.07798
219.21076        135.15509        224.63286
212.61368        141.17051        134.36112
215.09990        140.54188        214.70934
212.93213        150.75303        119.67361
214.80671        148.59390        139.12177
214.73006        149.72986        169.57614
213.95669        150.76770        214.98113
215.95331        152.34836        219.92551
213.84600        154.51323        175.76974
216.92011        162.84932        123.97519
214.96779        158.99175        139.00828
214.95642        160.16220        160.00685
214.76901        158.95070        169.44087
214.52214        168.04076        158.95669
213.82287        165.11844        188.00297
216.21359        166.20143        233.89606
214.91855        165.25390        242.33460
214.99731        167.58110        221.37271
213.87283        175.12423        132.33435
214.71907        180.25206        175.48476
216.72062        174.53575        214.92094
213.77868        182.19825        208.56134
213.99949        184.68691        169.22683
215.34470        183.67235        187.94072
217.53371        205.08639        142.34919
215.09801        205.52160        195.05215
215.02009        212.05563        209.73500
215.40747        214.80014        184.57983
214.92747        214.71352        195.21506
212.34456        217.36069        204.86482
220.32657        104.94901        128.71355
220.14435        112.07995        114.76811
220.39694        113.33779        229.77168
222.36347        119.25349        236.45441
223.42428        122.41296        140.24349
223.08763        119.03512        160.06438
223.07504        120.48825        224.61028
219.93958        123.52922        149.49218
221.28929        127.18519        185.05435
221.71273        131.56959        165.20851
220.10943        132.42834        201.05744
220.56267        135.11993        174.74467
220.27500        132.34819        243.90902
221.41830        146.48412        130.10239
223.16454        146.81258        162.66534
221.92283        143.43829        218.11991
219.97425        147.78231        134.87800
220.26991        155.22818        119.15440
221.11302        156.73167        129.87287
222.09800        156.52393        168.25396
223.40356        156.00954        223.40709
218.20329        158.10777        134.85725
219.11754        159.87163        247.26719
220.18486        164.91072        154.75755
219.00925        164.95889        173.50435
223.30198        162.63350        253.47105
219.91450        169.55592        175.74848
219.18450        170.52070        183.02365
220.19866        167.53054        222.51195
220.39656        168.63228        229.86597
220.32699        169.51769        243.08222
218.66054        178.15834        165.09635
223.25631        175.95883        173.60251
219.87046        178.68433        184.67806
219.54119        183.69191        144.23939
220.55343        184.70822        165.31614
220.55400        189.74994        149.77464
222.40314        187.83304        197.96719
219.99165        194.92931        174.28301
223.78763        198.47030        187.69395
219.07555        198.59614        199.71393
218.27566        202.70332        149.73433
220.25763        207.84257        204.83577
224.18068        94.83485        123.55261
223.20454        119.47991        150.90600
224.72537        119.15573        170.90969
224.31789        121.30860        183.08724
230.49163        119.82418        195.82164
224.06427        124.68997        220.13219
224.28160        129.51381        154.37872
224.44272        129.93173        174.18321
229.86265        129.83500        196.96383
224.71255        129.78412        221.01548
225.69919        134.50498        142.41255
223.48402        135.05289        149.75274
224.53365        134.98970        211.21608
224.22689        132.96127        240.04428
227.05144        140.02129        155.44600
224.08396        139.08493        229.42621
224.51839        144.78734        144.79469
229.41746        142.59865        236.33954
224.11901        155.85649        124.90720
224.67554        156.48533        158.92116
224.27841        154.47913        234.93750
224.20903        168.44230        150.74824
227.50692        170.84263        170.92112
224.22367        178.56788        219.75571
225.59835        185.88850        187.25125
224.87640        193.06673        165.16217
224.74010        189.66798        174.45467
227.05600        189.85567        209.82156
223.26325        195.06508        145.34555
225.42794        195.00261        159.86046
224.59778        193.22584        214.67090
229.86513        201.49496        169.61079
224.67409        197.62936        200.93797
224.56073        204.46118        159.96387
223.21660        208.67239        185.13704
224.58441        209.97633        190.97772
225.32581        219.01444        187.98510
223.24251        218.06292        196.28405
229.57355        108.85660        190.22191
229.93918        110.06116        199.47365
231.93766        109.75357        206.88535
229.71604        125.75285        144.11920
230.21167        127.67161        215.02657
229.78607        124.74940        224.79425
232.58554        126.27828        238.51868
229.97586        132.43883        165.26945
229.38597        129.80229        175.76759
233.93148        132.94863        179.40338
229.59016        136.25315        239.77476
229.53059        140.73598        171.14298
229.33837        139.11907        209.79419
229.99709        139.06702        255.48614
231.41701        144.40654        223.95547
233.56062        149.69498        144.01432
229.88599        150.64640        154.92608
231.60881        154.24411        164.76251
229.98669        154.90720        229.95450
229.01134        159.89212        138.33672
232.64591        165.56718        154.73886
234.23761        167.34442        223.55334
229.63855        163.38068        253.36125
234.29853        168.31319        137.31833
229.72017        169.05923        147.86350
233.59672        166.81661        163.74062
229.39594        169.73686        234.39317
229.44174        169.58686        243.25943
228.17737        174.98022        138.71627
229.31348        179.72855        164.88452
229.85206        185.35756        178.58509
234.73512        179.13529        217.53388
235.16408        189.61662        169.72903
232.11274        193.74898        191.02851
229.70499        188.28108        199.12758
229.40805        195.30160        153.60638
229.90041        199.17797        199.88252
229.84178        203.42868        158.24167
229.21057        204.29813        174.25765
229.63567        204.90039        190.14805
230.35700        207.02712        202.55052
230.03395        209.46661        164.96255
229.47526        212.17450        194.00150
233.89081        110.14973        238.51430
235.26881        114.96939        184.55843
234.76099        119.85848        204.40225
235.45836        118.65216        212.49447
235.87869        118.44194        219.10321
234.70140        119.68247        230.70298
236.77787        120.67551        246.05298
233.32488        126.19707        161.05989
234.98731        125.18515        186.23613
232.63861        129.63353        154.98586
237.44988        130.03975        189.78640
234.74292        134.78368        214.63925
234.58101        135.30214        254.19425
235.00830        140.58488        219.19938
232.98750        144.09153        149.34031
235.56395        142.58514        209.49889
235.66293        143.32265        215.06260
234.51939        146.12489        239.60293
234.72492        152.92863        153.33160
234.71648        155.91110        135.10679
234.49540        154.41553        215.92744
235.11927        153.71815        249.55605
235.34319        159.97293        154.95117
236.24947        159.63100        216.67235
