130.21165        121.51624        124.13134
126.11106        157.71593        228.02528
128.79355        165.63155        156.65209
127.24382        125.09047        134.41213
127.37972        132.09230        121.52417
145.34682        129.44926        123.13035
131.28715        141.87519        230.64210
129.94145        152.75435        215.67936
128.88379        149.50810        224.41479
141.22608        150.23593        237.23679
130.36399        161.55391        180.75759
129.49796        162.48317        217.12610
126.81930        162.45412        222.69700
131.43405        165.52046        236.44122
139.07215        171.13901        178.90017
132.43280        170.19900        213.38428
126.89888        167.88838        222.58035
127.53615        171.04090        229.48382
131.52211        173.51487        157.22852
127.61286        178.12816        217.43808
131.62394        183.03406        224.81597
133.75468        180.13299        234.96135
132.30315        120.55753        132.26972
140.26143        122.96533        142.03297
134.99882        132.28759        117.66583
134.85963        131.98641        147.67380
141.31751        137.75822        170.40549
134.15291        137.49848        157.38382
132.42935        140.56922        220.12493
136.47229        143.97174        158.18919
133.76593        145.12618        139.77792
140.19024        152.70576        173.68141
139.07955        159.15320        158.02220
132.29391        162.52718        162.38866
130.70514        172.77824        222.76584
134.91755        172.91495        237.10495
137.55477        176.81577        151.00234
132.85433        177.99933        212.75748
132.34541        182.05332        217.47934
135.40368        190.41137        228.87500
137.63380        115.72635        126.94512
141.63021        114.58796        136.22667
140.87745        131.92583        136.93096
140.77384        127.37761        112.85012
141.75384        131.39045        182.65448
145.93295        135.64946        217.41600
137.75033        148.08573        212.37757
143.76909        157.97772        210.83341
137.48663        157.26481        148.03665
143.71627        162.34971        236.47486
139.43566        167.71660        151.77153
141.63667        182.08854        137.32079
139.20078        187.20654        136.10426
136.99120        187.05337        217.22736
140.90622        193.57122        235.21025
144.97977        198.72333        220.08812
139.87888        214.36510        124.24311
149.04152        224.65405        127.79616
157.57060        133.37752        99.84466
142.57586        130.48438        116.02856
152.99625        132.53302        158.74507
149.19010        124.87571        174.78136
147.28606        132.34014        100.23161
142.79096        132.28998        107.37967
142.81088        132.25598        228.02100
146.45679        139.69090        102.75032
142.89507        138.25092        113.33072
142.93948        147.76467        160.68795
142.77204        147.83533        243.95160
141.93494        154.88427        136.94896
142.87540        153.26060        228.12764
142.71175        156.92226        145.29414
153.93565        152.52364        167.78357
143.22747        156.74103        222.87185
143.13213        164.20905        137.78248
142.74334        162.35155        142.74042
149.08651        166.12610        144.63870
147.29282        169.58598        225.84101
154.19188        174.44033        235.07030
147.68905        178.29723        156.57981
142.82366        178.29585        133.88427
142.83381        180.00479        238.25395
157.05752        182.82000        127.62620
143.74880        192.09128        133.35522
142.88827        188.18755        241.02671
145.18812        197.77335        124.66072
142.78547        203.04227        125.02185
155.16264        209.35909        120.75467
147.16037        223.84367        115.91875
150.45818        113.67673        136.67877
148.04533        125.44500        132.62124
153.71892        126.98304        131.16259
152.74894        134.74631        173.35882
147.95017        131.84530        227.98714
158.57045        138.27407        238.14668
150.49655        139.28161        112.63249
148.08247        137.55949        162.14228
147.96141        140.28758        239.81973
147.70755        143.02438        211.63733
145.14411        147.78935        133.92837
149.85351        147.70575        208.68767
147.86293        147.44122        241.78130
148.08311        155.09536        149.62677
149.17714        167.62712        205.55132
154.25054        170.39018        213.49501
148.00218        171.46302        192.49230
147.89739        180.12512        237.16258
148.16058        182.03504        117.83775
151.82820        189.98189        137.25777
157.57694        194.30777        237.03183
147.78641        189.70141        117.80243
150.74466        188.27470        152.11857
152.83479        190.95692        125.98070
147.68347        197.89022        132.32440
147.93006        197.71088        138.02926
148.05664        204.89260        124.41420
148.19481        202.90002        134.09046
147.93427        209.58565        106.34366
148.07655        212.25849        134.84028
154.07121        117.95165        133.98541
154.51039        129.27871        227.92623
154.85431        145.36503        157.15104
164.54030        143.60785        181.04018
171.04263        151.28618        162.98588
162.00290        155.87458        208.28208
158.19437        162.89294        195.73589
151.54436        165.62682        197.78227
151.60838        162.32066        203.18487
154.21744        162.28709        236.93265
151.58995        169.31506        155.21935
155.45142        169.97405        164.45034
157.74920        170.38427        226.19547
156.18377        170.20272        193.09578
181.37093        190.89727        168.16079
151.50573        187.52764        210.71681
153.28363        197.91772        127.21081
155.30809        204.23181        217.02543
154.86303        207.32886        225.85231
181.17812        206.16591        109.27391
155.00051        221.79026        109.74844
158.42334        222.55687        128.60077
154.52864        226.15716        117.83161
157.17870        118.05960        107.40019
157.33073        127.34066        222.64551
157.11446        128.74483        233.09076
157.38490        137.00619        211.78799
157.41907        147.74212        172.80023
159.33101        162.29230        159.49100
157.61504        167.25395        181.67152
159.59653        179.88348        169.78412
157.34813        183.57256        148.17593
160.08222        181.82020        228.07027
158.96241        187.32793        117.13006
161.61296        187.66973        218.53967
159.55206        195.63737        209.04065
159.89329        203.07174        100.36396
157.47200        203.12102        107.29690
161.12985        215.46365        123.81043
172.37389        123.95885        103.51825
164.75847        125.35680        110.75363
162.93970        128.69193        212.76450
162.45631        127.31565        220.19661
162.12968        126.83359        227.67763
166.21353        141.03817        165.55447
169.80076        140.73375        172.99864
162.57550        137.48088        208.67658
162.29283        147.65703        95.43918
162.40506        147.93135        171.03390
164.96712        147.71041        219.96112
163.07457        156.73014        229.32496
168.46824        155.95101        176.29417
163.12274        157.34171        195.33586
161.81158        167.76360        203.11800
166.45495        175.02588        121.80886
162.58623        172.94757        200.50897
162.28536        172.64185        232.69002
162.19466        179.98158        117.00847
165.48845        178.20000        175.72239
162.20374        177.64357        187.48931
162.33741        175.20126        192.49180
162.39558        177.71721        200.24355
163.71717        178.97117        220.12063
162.06775        182.55732        200.57967
162.00906        187.29243        146.07062
162.37207        190.63276        172.96952
164.75472        195.14747        178.85313
165.20858        187.26916        210.15599
162.42792        187.10910        247.92623
165.21497        193.54706        132.17234
165.00117        191.95147        139.55824
162.46521        203.32743        122.94971
168.68869        203.45660        211.81643
162.39565        208.01389        222.75458
162.54113        223.39488        109.79886
164.89378        227.95410        117.78167
170.46577        107.40566        117.78166
176.62169        112.73326        128.60668
179.79850        124.85995        121.74586
167.59401        128.04095        219.22357
179.62104        141.24416        237.69337
168.31808        133.61333        211.01449
178.25888        154.85156        127.90900
170.24228        142.55498        132.27468
169.21568        143.60456        137.41306
167.59947        145.28472        172.84496
167.79771        145.36684        237.05821
167.17608        147.46407        96.71792
170.72395        148.51144        209.73572
167.06870        147.38854        228.13243
167.69057        153.11681        240.91701
170.66998        159.99316        121.16676
172.30199        156.52186        220.62896
171.26106        162.25851        199.70396
167.57109        161.90313        203.18482
167.67987        167.67982        122.85108
167.68007        167.67998        223.22792
173.88987        179.83155        208.05750
170.75903        180.64747        233.59252
174.20939        182.52361        157.50315
168.18341        187.89523        96.71788
167.76043        190.07521        172.84484
169.60642        187.48023        180.60718
171.10508        187.57258        219.43650
168.75114        188.37211        228.06605
182.41184        203.37871        158.43182
169.96645        198.20798        172.89918
174.84800        198.38379        239.22550
167.68513        203.05249        95.61528
167.69702        204.43507        235.00298
170.25329        210.24339        110.09800
167.77213        208.31767        220.94906
172.81863        111.96494        109.79873
172.94293        127.31169        221.57708
172.89452        132.03230        122.94977
172.98635        132.30956        237.12707
172.88540        146.18110        143.86869
177.58098        147.96017        117.69284
174.38601        147.35581        219.54657
172.95696        149.96921        248.11778
171.60017        150.59413        192.47338
179.81858        165.19264        212.90269
182.52106        161.10775        235.38603
173.15584        157.71592        187.48944
173.27693        165.86703        227.56032
173.07426        162.71777        232.68999
174.14928        172.81736        197.89728
172.23678        178.01783        195.33577
173.06685        187.70270        95.43906
172.87781        192.64625        102.47509
173.19641        193.55642        184.03444
172.90316        208.04380        220.19659
190.56325        116.41210        125.58464
180.40639        113.41076        110.32341
180.49657        128.03090        225.85228
178.42420        132.18705        107.23836
181.15731        133.39396        215.76620
183.92046        145.99337        136.96145
178.12009        142.19881        208.60117
179.46590        147.49219        125.80296
178.01152        151.78708        148.17604
186.60832        159.43356        156.93783
176.37371        153.53180        228.20962
180.13615        165.39781        163.99506
196.30113        165.31134        178.79777
179.87084        165.45158        225.81133
177.71923        168.47194        181.82201
176.60854        172.96860        159.83900
178.49390        172.93388        233.35701
183.27372        180.48124        236.96163
180.33327        190.04970        156.44704
179.80918        191.26928        182.93724
181.21648        187.26064        237.43188
177.68682        197.59140        209.95232
188.68993        206.08059        177.36223
182.42473        204.36895        235.47170
181.63630        208.47441        130.91323
177.81088        206.54664        217.78852
178.02876        208.01883        222.64530
180.20402        206.74089        227.88350
180.71925        217.35882        132.49965
182.07558        137.44151        127.21062
184.69269        142.85984        125.12818
185.47142        147.89272        211.22606
180.37283        144.81033        228.24258
183.62147        159.00847        181.73569
180.56066        162.66470        198.13115
186.94467        169.79551        143.70164
183.66716        168.09985        197.67852
183.84907        171.61806        192.83644
184.72445        172.89718        203.26163
182.44920        173.09679        238.80019
185.47302        187.54078        208.20332
184.49286        196.31341        112.92332
189.57764        196.00928        103.26503
188.07369        203.01977        100.23164
181.60811        202.53455        167.49720
185.86956        202.39529        217.85211
184.13216        222.44269        136.26840
198.12925        214.09749        139.04546
189.29822        112.62996        116.93309
188.54660        117.88990        114.46591
187.42546        125.77418        106.34360
186.79957        128.97012        232.74158
187.16501        132.45999        134.09051
191.83615        136.21831        222.19244
191.72508        137.51363        125.14349
191.96071        142.83813        133.31387
187.42973        137.64895        138.02917
194.85459        142.29776        235.19171
188.65212        146.43183        117.91336
190.96885        150.12242        124.78150
187.26997        148.35153        152.96336
187.46236        155.23451        237.16263
187.35730        163.89658        192.49228
187.56737        162.34926        217.29468
187.61648        163.03282        222.71286
188.38041        166.61533        227.78216
187.33755        167.73791        207.75651
187.71650        176.14199        212.29680
193.11560        172.38298        237.47292
190.48121        179.76141        146.87460
199.28066        177.33591        159.04268
187.49681        187.91860        241.78131
187.65177        192.33487        211.63713
187.39812        195.07217        239.81956
187.27749        197.80051        162.14251
193.51624        207.23203        135.84690
187.40894        203.51420        227.98740
187.22230        210.72013        132.48136
193.07150        122.88795        132.25770
193.62842        132.25982        124.97481
202.95468        150.89039        224.30468
192.58302        149.11250        212.04818
192.48774        147.85648        240.46393
192.97078        155.93424        135.37626
190.77888        151.42283        247.22439
192.56004        157.09139        239.69278
199.02515        156.98517        150.93770
196.54904        167.50867        149.59529
192.67163        167.73586        162.07168
192.61631        173.00815        142.74027
192.69274        175.59733        157.19384
203.84206        173.47544        190.11005
192.13203        178.61854        222.87182
198.61032        187.98712        237.37692
192.86234        182.30111        136.02129
192.52042        182.20401        208.51966
192.48425        182.09906        228.12770
191.93208        187.10951        134.03626
192.42009        187.59504        160.68799
195.86128        196.53606        216.53023
192.59237        197.84199        113.71158
196.81214        196.82930        138.33746
192.49814        199.05619        215.40709
192.56894        203.06968        107.37944
192.78417        204.87565        116.02871
194.99399        202.78720        228.04611
194.03832        208.75132        112.61380
196.12776        117.89770        131.70303
199.95370        144.63533        228.69166
198.32177        153.49104        212.68535
202.23991        155.49802        235.60552
198.14515        165.17957        208.56700
200.44199        162.44457        237.10476
197.65223        172.90178        149.68458
197.58833        173.02406        208.57209
198.31231        179.16594        147.19970
197.79449        179.46300        211.17966
198.64063        192.22168        155.99463
199.57025        187.52421        162.58170
200.17927        185.63572        167.68149
197.22790        187.20744        211.94820
200.36106        203.07229        117.66585
197.63587        217.69281        123.21274
197.78977        217.44592        132.30387
204.38512        155.65596        216.49085
203.79243        162.56889        156.96299
206.60799        169.85707        156.11524
204.57603        162.66988        215.22035
207.15390        163.66786        226.85816
207.12592        173.06428        173.18613
204.75465        167.72862        212.38503
205.74474        169.92397        235.31032
203.06594        172.83270        162.38888
207.34192        172.84619        217.26712
203.25493        178.04008        182.33574
205.52980        182.44301        215.10446
201.54072        190.57208        139.80958
203.46887        194.57826        220.14816
201.20674        197.86108        157.38367
202.52498        197.27198        228.20425
205.19846        213.81587        123.56158
208.82355        167.73312        217.47212
208.54021        172.90559        222.69674
209.46490        176.84495        227.98885
209.51842        180.18184        222.62587
208.56865        187.28433        227.71727
206.62410        192.23282        228.06226
207.98018        203.26761        121.52417
