57.05329        79.82933        65.59954
56.24853        123.04388        67.23103
57.98728        128.24404        78.28020
53.87998        132.57264        66.12353
56.91418        137.93679        62.20377
60.99914        82.18429        52.27245
58.27241        87.81201        50.01861
61.46556        93.25476        46.32435
60.54118        90.62474        62.88333
57.70713        114.85118        75.34926
60.55124        117.85331        82.12510
61.69358        119.25056        117.36860
61.68273        139.76774        71.82535
63.37328        67.80313        60.66439
63.13442        77.33745        64.14777
68.68532        80.84915        49.10820
63.11547        91.57120        56.38929
61.82266        91.05547        167.08010
64.70852        97.07087        155.12908
68.16995        103.41802        41.15355
64.30999        101.24047        175.41803
63.27984        109.66178        155.41771
68.38987        112.86552        39.90293
63.23126        114.15231        48.40410
63.27307        112.20015        71.67798
66.50858        114.38472        106.24410
69.37379        123.01627        37.88667
64.35046        123.74852        62.40196
64.79145        124.59234        85.61773
68.17831        128.54168        70.01253
63.15066        139.38827        61.00056
66.91848        71.23041        52.65527
69.71229        76.54106        62.16740
70.17262        85.00389        69.35436
70.72678        89.94195        42.10645
71.07093        89.66590        57.94520
68.01499        86.31744        152.11855
70.63631        96.48213        52.63224
70.08266        97.38125        62.13489
68.08798        104.97504        107.53353
68.35999        110.14898        52.06157
70.50849        119.33464        76.12371
70.26556        117.13866        113.78703
70.62191        117.03213        46.81026
71.76051        122.79450        113.45651
68.46380        123.16273        122.06791
69.80947        131.24310        55.60742
71.84838        125.54047        100.30256
68.06153        131.31958        76.98373
71.91455        134.00208        83.49944
76.81295        130.99091        106.58055
67.35602        131.37437        167.09322
70.21095        140.44620        59.12585
74.33768        138.09175        72.70715
73.76913        72.84988        159.29145
72.25628        77.16010        71.56201
71.29713        82.54931        166.59268
72.96113        106.99459        49.21444
81.56681        109.49714        55.70217
73.82894        112.50880        62.17423
72.85379        113.45400        68.03468
72.97651        112.72538        101.35717
80.75342        123.29008        54.11389
76.54468        120.02462        91.92128
74.60199        117.94891        102.50052
72.51673        115.57144        146.06849
77.19841        125.27933        63.32365
75.34348        127.63150        123.55486
72.49398        135.45457        91.85590
72.38240        138.43826        156.17070
78.61074        67.48734        156.91282
82.35365        73.80320        60.01957
78.31143        77.08268        150.58024
79.84167        81.49136        45.13193
82.88122        85.96038        54.12356
81.92947        87.80673        69.38787
80.66840        88.02901        62.09510
78.01038        92.00669        41.79427
79.06397        95.54616        52.04387
82.51210        106.47633        33.02120
78.35671        98.60635        62.27303
78.07560        103.81924        47.91950
82.82437        107.94705        87.48466
78.15087        101.45185        153.11530
78.35393        110.12728        26.97689
78.94486        114.82747        43.98275
83.32340        109.28020        98.66135
80.20390        116.26756        112.61660
77.60324        109.89974        177.47899
78.11692        121.66379        28.71946
82.29970        123.56619        71.64291
80.13882        122.90612        100.75836
87.40547        125.98561        42.60070
78.26967        136.56884        57.56176
78.10295        134.29504        152.12904
82.38772        67.40815        176.54502
84.52981        94.77683        39.61246
83.26748        102.68706        46.44809
83.16270        98.82583        60.54671
85.69540        102.46386        104.83158
90.45304        97.61668        114.31251
83.06780        111.96370        39.68405
87.93785        117.82920        26.84715
86.81961        124.99484        27.94871
83.76923        123.41542        117.69570
86.09216        127.30409        92.27574
85.01728        127.56553        181.15100
83.32229        132.35608        112.15904
88.06428        81.19018        67.39346
88.19876        102.41857        69.50239
91.87129        99.89689        79.64972
88.02248        97.45274        103.06136
88.25610        97.50345        180.67813
90.08972        104.77861        39.97019
88.00682        103.72272        62.11806
90.51722        111.99141        118.19971
87.69479        112.15389        100.32760
88.08732        117.80674        102.61069
88.62340        121.76827        123.00180
87.78723        126.05210        97.23358
92.49344        124.96653        105.24699
89.28268        136.17659        107.26438
87.93050        132.32961        116.28428
86.88606        134.76142        145.99925
94.21240        72.39125        145.39919
95.77389        77.48908        71.70900
92.77317        78.20717        76.94603
93.33004        82.23631        54.39522
93.17070        82.22055        67.06673
93.87859        84.69396        176.05164
93.64235        89.86565        62.16030
93.28315        87.80006        75.82681
101.55680        85.93772        90.95829
91.90506        87.98645        166.95375
99.14472        98.99798        53.96046
97.29017        101.38899        98.68096
91.86973        92.32911        177.92252
95.73274        103.50442        148.09337
94.11954        95.19373        156.81869
97.23974        103.73776        174.29417
97.92056        105.10649        63.03896
93.30459        104.88613        109.99397
94.26313        102.82783        122.01743
92.68666        105.01200        161.94521
93.14955        114.54952        46.10259
91.82041        117.55326        97.22121
92.63744        122.75347        32.26626
94.24493        122.06420        142.82627
93.45173        128.40837        173.89525
99.44910        137.15998        98.58499
104.67093        145.82561        116.49643
92.29951        144.97831        150.84829
104.33327        89.31249        61.02835
103.33647        93.31492        76.52334
98.61350        96.95108        86.38250
97.02249        99.62771        127.31107
98.44003        97.71920        132.37016
99.91529        97.28399        140.92112
97.58179        106.82734        116.17734
98.95879        114.19352        36.22435
99.89794        114.35597        106.89173
100.51992        112.37763        146.15388
105.11464        118.81838        95.93474
100.92009        118.41309        173.03679
100.68042        128.25507        105.85442
100.19335        128.19099        178.18479
98.97581        132.56609        83.86099
100.96785        132.16318        113.93333
97.97914        132.19626        140.77320
100.58249        137.88196        86.60946
100.02029        142.45630        128.07713
104.04109        66.70265        88.89068
105.33926        74.87715        88.46574
102.68588        92.46341        106.70207
109.21476        87.32105        148.54219
101.85453        95.96403        165.48287
102.39663        92.35337        171.99149
104.32524        97.38443        106.77929
105.13799        101.29050        155.36296
102.55215        97.28875        175.54132
101.13829        97.46051        185.87275
104.91263        101.40226        117.59549
105.29888        106.55771        163.49427
101.87493        102.74936        185.40026
101.37110        104.62143        71.80321
104.00007        108.28325        134.65844
106.53752        107.42054        147.38886
104.13876        112.29615        55.05572
103.00296        112.32926        162.58674
102.91124        117.46161        146.53489
104.28205        117.66097        163.85629
102.85882        125.07255        154.50093
106.85236        126.05265        174.20405
102.76464        120.65080        185.81732
102.99481        127.03614        120.59436
102.91489        132.98248        129.32632
106.75129        143.41574        88.92195
108.62653        147.03876        100.85303
102.83666        155.97430        166.65033
113.63611        72.98739        112.45911
110.04193        76.42424        121.03399
108.00214        81.02168        71.90066
112.11126        86.11266        98.95453
112.77747        85.96341        126.80474
116.51713        85.77920        173.17504
113.35802        89.89470        114.50372
107.56368        97.77514        127.37742
108.25574        103.99836        68.47519
106.24883        102.54786        109.69539
109.35660        101.36632        138.34401
108.08445        112.54273        63.27617
108.85731        111.88888        138.86080
112.11966        114.23692        152.84065
108.17462        110.84693        172.19745
111.86698        116.58133        121.74299
110.06920        117.78469        134.14668
109.91696        123.99425        87.27002
108.15388        124.18015        133.89139
108.02118        123.84703        144.98682
111.96057        128.79931        112.61594
108.10336        127.77148        121.73573
107.06497        132.41013        72.11545
108.25718        132.44846        77.42063
112.58972        133.08693        82.82510
111.24847        130.91421        121.60598
106.70570        137.83879        112.41909
108.54066        137.54170        117.73556
108.26214        142.49701        127.04643
107.56113        145.06009        135.71907
113.70449        57.68418        157.64616
121.91322        68.12593        97.49967
113.36396        77.27518        89.96553
114.59155        77.19512        96.92746
113.40650        83.65427        68.52892
115.28448        82.39201        83.29117
116.63797        83.13138        164.50662
113.27001        85.09222        157.26619
112.26986        91.64862        67.04304
115.97667        96.59730        102.87611
112.43987        92.21677        136.97025
115.57144        97.42735        151.25941
113.33466        97.16868        167.24572
113.17499        107.17248        56.60835
113.07018        112.38401        142.80360
114.32455        118.92949        170.05118
113.59075        125.31619        97.16773
121.88524        128.54212        96.84017
114.72417        128.48850        129.03365
113.56481        125.91411        146.40960
119.31660        124.16605        150.10568
114.41680        127.11963        162.73097
122.86781        143.32926        90.26242
113.55202        138.01386        97.31125
117.97677        138.73645        121.55926
112.92945        151.58723        162.85348
120.45866        66.11312        119.38802
117.66367        62.25944        175.74444
118.75394        67.48826        105.57164
121.78649        74.59263        86.54188
120.15947        73.80575        121.36241
119.35605        89.75419        82.35436
121.99018        81.45290        111.81007
118.72455        83.37925        121.14330
121.54609        89.86683        133.28760
124.29039        89.28429        147.87659
117.39465        91.73764        91.69002
122.97594        95.13143        163.36591
118.52761        97.06937        121.87056
118.65948        95.11882        127.78964
120.10854        99.62395        137.81298
117.20202        97.83915        174.22828
124.09839        103.14351        164.85382
119.14389        107.29494        56.34668
118.83078        111.39030        67.95932
119.97564        112.03281        139.48935
121.36305        125.24585        57.73258
119.29385        117.42891        72.03379
116.14710        117.97053        117.72466
121.20879        113.23766        130.10596
116.17427        123.26232        66.96973
118.90389        124.69461        119.03688
117.51679        132.90028        102.09979
118.88164        135.77669        71.77089
119.02056        144.53266        181.72352
125.22256        57.89084        152.13178
122.90664        70.12026        92.10443
126.55831        67.60749        130.40502
123.38648        72.56607        107.06451
122.82609        72.84230        175.55181
123.11511        77.18010        101.38781
123.10579        81.37752        91.90228
126.35976        82.37225        102.04386
125.10130        82.39980        128.22870
123.32232        87.55134        119.82515
121.49751        88.03211        185.07078
127.34922        91.81562        173.20162
127.88519        94.42583        90.69828
126.65734        102.47298        36.12280
121.71049        102.99001        57.04516
122.83616        103.23256        147.39274
124.07911        111.33788        51.19088
124.38924        107.02042        132.61903
122.74653        107.05122        152.03574
124.63858        112.34959        161.77920
128.72480        105.31304        177.08426
124.67515        119.63378        76.47692
134.44795        114.22161        100.20409
124.80533        117.15745        108.40083
124.37931        112.70675        119.58970
127.41464        115.30646        177.85287
123.19495        117.86979        53.88468
124.62650        117.52683        173.06727
130.58458        132.47218        63.33893
130.11923        68.46594        113.78623
128.24316        65.31049        179.23433
130.28387        74.51485        125.67574
130.63624        79.48581        84.31465
128.58689        77.37872        101.16264
126.07708        77.33669        145.28780
135.24631        82.14645        180.48462
128.60706        83.67750        94.81507
130.14759        82.41963        112.06245
127.54764        87.51846        104.14661
128.00969        87.72117        117.54872
125.98913        92.34969        167.02760
132.79870        94.44372        36.07673
127.94562        102.45670        107.83395
128.60463        102.46736        144.43960
128.28725        102.34389        172.15865
132.13089        105.27710        43.53557
126.18536        109.69950        186.58851
136.49027        112.05419        59.65040
128.27947        112.24577        69.49818
128.39888        117.98675        52.87744
128.05704        120.09867        70.38960
128.32624        118.94424        83.67325
128.10903        117.69570        147.63671
131.40217        132.83736        53.43165
130.71185        129.82420        77.33962
129.66284        145.92966        155.80678
127.14075        150.54348        162.91852
133.04431        74.38814        96.58865
133.54748        79.24324        177.65376
133.68156        82.21001        170.13729
135.96522        87.20422        97.32066
136.67478        90.64847        26.16738
133.89590        92.24186        43.97490
137.14410        90.65442        104.73069
138.45959        102.76618        29.12830
132.93104        97.45827        44.38922
139.12303        95.74986        89.64415
132.36308        97.39539        105.69264
136.77406        102.63533        110.01155
133.70914        104.13724        149.08822
134.14197        102.79072        156.96253
133.95948        107.50410        112.21126
133.39152        107.50483        117.76633
135.95904        111.29379        40.52048
140.77661        90.96243        113.47783
132.75789        113.84506        128.59055
133.64091        113.94766        151.95339
134.67517        113.57422        179.63233
134.03054        117.90558        112.32189
133.36928        121.06229        63.75246
131.85485        123.79626        111.58496
134.24377        128.92054        90.24859
133.62503        127.32304        183.91654
136.81323        57.98301        162.36938
138.22136        78.36859        147.87403
140.14747        87.49736        48.69611
139.33182        97.33560        99.73968
136.53984        107.19075        166.64239
144.50131        121.01715        37.80967
138.82458        113.85731        69.16265
137.74434        116.30253        78.19521
143.63224        113.89274        116.39481
141.02767        125.11287        68.44424
136.55139        124.33714        147.63883
135.69682        123.19418        172.36365
144.72070        128.73735        53.82312
138.04056        138.48370        57.89017
135.81469        137.94852        77.08701
138.48926        137.52579        156.27830
143.07263        67.31328        162.28721
150.13993        75.99666        57.01742
143.76046        82.88578        52.40100
143.27949        83.54323        187.30484
143.41987        90.02689        26.82698
143.63352        90.40120        70.54953
146.86203        87.78517        88.50929
143.60742        90.56469        37.76533
143.24346        91.47618        99.14167
143.26526        97.25748        27.03478
149.92779        88.00736        61.38119
143.41344        104.93277        42.52014
143.34225        102.55894        47.30115
143.29779        105.51564        53.14483
148.76207        101.63889        91.46784
141.79188        102.35372        181.73677
143.34784        109.66967        100.64552
143.40677        112.27230        44.93014
147.21556        113.36272        82.28282
146.90796        117.64944        48.74354
149.85513        128.99429        64.52416
149.20000        134.77416        43.99732
149.26295        72.45024        175.43444
150.46792        84.81576        107.72689
154.17220        82.89863        53.57494
152.64677        93.99626        29.66039
153.13514        89.91705        77.33268
154.13529        86.06667        122.63578
148.66979        90.57337        37.95110
157.12453        90.77771        99.99015
150.92556        99.17118        42.04827
152.22218        100.19122        64.85328
150.60421        97.99847        111.49114
149.23618        102.45573        55.65800
148.46623        107.01141        32.06584
151.01258        108.89037        46.92646
146.79932        111.32519        107.13710
150.14377        112.47231        35.37105
150.20278        117.49407        36.65832
150.94000        122.63784        52.45536
147.49040        123.18569        147.86960
152.38959        122.97520        152.69603
149.40048        140.80392        57.21944
146.51703        143.69796        167.85869
153.30918        87.28336        40.21341
157.45355        81.50634        83.31581
154.37768        81.96723        177.47705
153.37834        97.43916        101.44771
158.36436        101.78763        40.93419
153.09296        102.68569        100.30059
155.07811        117.37889        60.50992
151.89472        131.74969        156.11147
159.14452        140.03468        47.19852
158.32005        73.30687        57.18252
158.48767        72.66433        70.33328
158.39888        77.07647        76.98542
158.57974        82.29670        77.22887
158.10347        81.94315        92.33276
159.57856        87.67976        56.99232
158.80144        87.94246        62.45189
158.15752        89.77475        69.59109
162.32483        89.23732        82.43211
157.98979        90.66877        111.98364
159.36237        99.93163        70.31712
162.48990        96.08398        114.75776
158.62791        102.55789        102.27036
162.96815        106.86558        104.98302
158.77611        113.05070        40.91449
158.13484        119.45240        50.64016
158.27886        128.25703        41.48936
158.28315        125.08170        56.66092
158.34209        129.94834        67.21015
156.95430        133.87117        51.08890
165.93890        129.52790        59.28572
166.03750        76.33249        59.95348
164.87549        75.27373        69.74918
165.03435        81.68363        73.00806
168.10684        92.69142        61.41237
160.40284        93.31132        107.08435
161.17403        92.35038        156.12784
163.55598        117.76249        41.91539
165.84564        127.48788        46.31256
162.68115        122.94851        163.82929
171.27630        89.74861        71.41192
169.47227        97.60962        75.22285
166.86417        139.51371        52.23000
