77.02104        112.64135        136.74053
82.65272        112.63395        137.22387
87.99950        91.51974        161.91888
88.42013        96.34312        118.39534
86.48997        131.79102        102.26863
94.87676        168.02212        131.12503
92.88651        113.11619        142.30238
93.71321        122.90651        146.00990
93.30120        127.63483        128.37309
101.37202        87.25491        128.77490
98.44419        88.01323        134.10939
102.34731        101.96800        128.69606
96.67770        107.64509        105.38220
97.98866        113.11282        138.46761
97.32013        117.73306        130.27672
97.89401        137.07912        112.64846
96.86960        143.38485        103.45872
98.64895        177.68369        133.09366
107.03079        92.97380        131.11991
103.93410        103.74239        142.50808
103.37180        112.15422        126.59277
105.60927        121.38073        128.95618
104.00723        124.46444        123.86530
101.56979        132.00406        126.53894
104.10521        132.93803        147.95737
103.94207        168.77864        128.60762
105.07749        168.59971        136.28657
102.56832        170.52600        146.10351
103.74475        167.33659        156.20083
103.68512        172.41878        112.73426
106.01654        179.31303        122.71465
105.76597        176.73732        131.58452
106.85259        93.60621        116.96509
107.79938        107.84174        124.78574
107.32715        113.19346        142.45792
107.32979        118.38722        117.77924
107.94191        118.18477        142.42203
106.60508        121.38691        133.89275
107.79983        131.57573        117.82246
107.41631        162.42205        125.86001
107.54065        163.42337        139.09839
105.14717        169.10289        123.63312
107.44796        170.29945        152.68293
106.89162        177.43600        107.66677
108.97713        177.49136        142.52105
112.13947        88.87442        112.71604
114.54607        89.26382        124.35048
114.34533        88.54775        138.59548
112.90589        98.11772        144.53767
112.39503        103.63869        148.24512
114.12390        102.34166        161.65726
113.29184        107.89840        131.26415
114.45453        112.84898        117.87750
111.91695        112.39059        153.07492
116.38516        128.84293        128.49618
114.27019        127.80395        139.75424
113.49318        129.15102        151.32391
112.58789        131.86988        108.72531
113.38751        146.06516        153.35055
112.70470        153.48291        132.98129
111.76679        168.29659        142.51145
114.45361        170.11483        130.91310
112.49615        179.49429        118.04503
112.33276        187.51892        133.60331
112.22243        188.88671        139.20831
112.47745        196.61146        138.37484
117.84375        84.17050        113.12161
117.87916        83.14995        138.87161
117.71225        110.88914        142.82425
119.45953        112.54371        156.52437
118.38855        119.88652        112.98191
117.38234        118.24802        134.01996
118.52147        118.02526        147.55953
117.33073        123.85644        117.98461
117.47950        126.57412        123.47219
117.81666        128.25354        147.43650
117.89132        137.30763        96.81339
117.78923        140.56377        144.49304
117.80643        141.28787        155.48608
117.91451        142.55605        88.00005
117.99900        163.79924        130.55416
117.35291        170.41148        153.97036
121.31520        172.39564        142.44530
120.41942        177.59546        123.66118
117.85352        177.56100        139.56614
121.39848        182.60558        114.38360
119.32757        185.23330        125.76959
117.81345        185.79193        143.56844
118.66890        185.94270        107.44063
118.32406        188.16992        151.21142
124.78759        83.18183        133.31939
122.74586        97.98450        118.16748
125.09704        100.76222        128.36494
122.76222        97.92344        163.33201
123.53289        105.75046        112.51650
123.27408        103.80406        133.78100
125.47136        123.41349        138.82710
126.15045        127.88553        123.02939
122.94473        128.29479        148.57782
123.01352        129.20636        158.35851
123.01135        133.88893        148.12918
124.04190        133.86194        161.80064
123.49145        142.38836        138.86429
129.33499        145.47266        133.51266
125.78220        148.40316        143.01875
123.24062        148.23267        148.18145
123.10870        160.04026        140.73211
123.77698        158.79171        152.90369
123.47180        160.06758        158.33727
123.34666        170.60415        125.74325
122.83390        168.99278        147.03488
123.47339        176.94811        132.95431
123.56580        177.92573        150.04872
123.33426        184.67927        154.14313
122.83983        193.23330        138.77578
122.46291        196.32475        128.73070
126.77473        82.83553        148.52947
128.89841        91.30629        134.26555
129.48127        99.02094        138.42292
126.22556        107.38890        102.52056
126.15955        112.75623        115.69143
126.71938        117.91912        61.59994
126.13064        118.19208        118.47057
128.14053        117.96401        139.33659
126.40260        124.92263        82.95363
126.13992        126.09429        87.95875
124.97212        128.51458        112.21379
126.18116        128.15499        142.92705
127.78311        126.17971        158.22297
128.95577        128.38244        162.87463
126.38087        131.56380        77.86310
127.88392        139.31944        139.52164
128.50971        135.41020        147.84179
132.78520        137.90738        153.03329
126.72987        142.54011        77.45146
127.56014        147.78026        155.37823
126.70585        152.86445        91.31081
128.16752        152.84072        139.09152
128.45608        153.79031        145.53294
128.69094        153.14336        157.86922
128.56425        158.25926        142.99839
127.96376        163.23380        127.94296
125.94967        161.51005        133.84574
128.43556        163.70813        147.50095
130.10414        169.17594        135.51785
128.23485        168.66796        152.73221
128.33143        172.91384        148.11060
128.07128        178.53412        118.67569
127.73577        177.48153        142.48314
130.78998        185.48200        138.01946
129.24154        190.64872        120.33342
128.11884        194.31063        141.97047
131.52426        91.49238        153.53970
131.51042        113.20271        147.12688
131.73338        118.12822        109.48110
131.65089        117.98590        150.31103
133.83539        126.04834        138.53267
133.82072        131.31607        107.60858
134.14676        131.95636        112.93252
136.33326        133.41316        124.87843
133.52994        138.96668        138.54970
136.72040        140.49312        161.61581
133.40282        148.37570        123.80879
133.45719        155.68920        128.51925
133.85640        152.80246        136.23748
135.30492        153.28230        155.89578
134.69317        172.79556        124.00006
135.79268        177.09952        140.35449
131.65802        183.30811        150.12058
133.27734        186.10002        122.89007
133.72145        189.63685        148.59407
137.37915        82.84464        148.27092
136.44790        112.24007        107.48220
137.43529        112.88495        161.99565
139.60113        119.05911        101.83038
136.62026        122.88320        87.65301
135.11616        132.03800        117.98002
138.49273        133.86951        158.97315
136.62057        148.43768        107.41525
137.12326        148.30385        117.70604
141.09599        151.20396        128.14965
138.69366        147.57636        145.42734
140.23399        156.91806        134.38012
137.06495        158.41488        147.56036
138.18380        157.84252        153.00860
140.49665        163.38297        122.99069
137.42793        165.28224        150.99060
138.56736        172.89083        148.65915
136.84608        177.93463        118.35771
136.81595        178.01107        133.62359
140.82865        186.05666        140.89184
142.52985        186.96080        132.21785
139.75690        194.76960        136.67107
142.70676        91.41232        131.81635
142.58713        112.61916        156.64377
143.63736        128.50753        112.47489
142.75790        137.37427        118.42101
142.30043        142.56606        131.88453
142.58997        142.40226        151.20348
141.99600        147.93554        151.65125
146.66403        161.70436        142.82509
142.48898        168.47222        128.32274
142.04540        171.73142        136.62113
145.80114        176.69991        139.11436
148.63367        103.37965        96.24026
147.16282        107.80833        107.56122
148.40294        117.95893        108.13608
148.49290        123.27440        107.94240
147.78539        123.19692        123.23514
148.49037        123.19943        153.11939
147.13548        133.42003        115.63163
147.32558        144.42278        118.56857
147.65483        142.63972        137.15352
152.73757        101.20736        111.99018
152.47191        107.25169        97.82338
155.31488        122.59166        116.45368
153.06964        126.68938        82.74146
152.82969        133.43652        124.04058
153.30992        140.14077        127.14363
157.80158        103.98264        103.78338
156.64944        133.38819        101.87629
159.08132        137.77691        98.71253
161.95225        131.63676        135.90935
161.05464        147.84025        107.35532
172.48280        112.64190        123.20038
