84.33072        98.72778        132.65852
85.93271        100.90761        146.28622
86.77405        114.74743        148.50337
84.74819        118.87318        131.84037
85.08850        125.91370        120.42719
91.10502        91.38480        134.76469
91.27011        96.54780        105.72779
90.56420        93.96408        114.40234
90.58085        94.02888        140.15039
96.59349        165.01297        131.86006
103.55125        85.43334        133.15263
96.54778        90.74957        120.49398
96.48109        100.39432        106.30281
98.72600        118.14829        144.09262
98.71006        119.02762        132.46442
94.71118        134.13993        114.54003
98.68212        174.76614        136.90004
98.59524        177.43375        120.29081
99.63651        91.44515        111.04234
103.47994        90.99263        136.64055
104.21208        165.66467        152.63220
102.97252        164.76521        159.85480
103.97625        170.66367        116.69847
106.48979        78.42575        149.44645
105.53563        99.02054        126.23521
110.99198        98.37955        108.00626
106.41731        98.12327        139.97561
109.11511        108.06726        124.98858
108.51144        120.79494        126.13664
108.90036        164.52315        138.10789
107.90287        161.04713        126.54852
107.40073        167.80065        125.51404
106.79385        170.80258        141.24397
107.55085        178.30088        112.67492
114.82393        178.17230        119.52744
109.45824        177.49305        145.57740
110.11440        80.50581        145.57923
111.21489        90.75433        111.15990
109.91581        91.13004        115.99329
111.03006        94.97611        156.72177
111.00711        111.90478        86.93846
112.67365        110.56856        97.70314
110.97536        113.93127        110.81233
110.53474        110.64572        143.85369
113.80704        108.74542        152.69210
110.25386        116.62035        116.02069
111.73352        117.18185        143.04784
110.28470        120.28563        120.46478
109.49509        119.62268        133.76271
115.19070        121.89369        104.88982
109.60569        135.79864        91.42580
110.70907        140.78285        108.07687
111.12955        145.59104        135.44887
114.01930        143.87108        155.14631
113.37895        155.69746        134.47369
111.66370        168.24140        144.72085
110.79561        171.45028        155.01695
111.54310        186.98175        135.66224
116.38789        185.47776        145.29080
117.71063        194.78678        136.82040
117.42070        85.28874        135.96611
118.27280        94.24436        98.87916
116.13873        89.13012        110.50503
116.49874        91.19857        125.46083
115.99873        91.02743        141.54751
116.64439        96.47193        126.09960
115.68717        98.76519        133.70324
116.00150        99.37447        147.55802
117.73575        101.18977        120.34383
114.73185        105.99102        111.13240
114.17175        111.99443        106.58231
116.64563        112.44167        119.96494
121.33558        119.41097        128.69267
116.66545        125.36082        141.66553
118.49804        132.08339        110.25600
119.11928        138.19949        146.18055
115.37348        168.55126        132.81437
117.54413        167.88411        155.30626
116.75046        169.50259        160.64657
122.57427        171.82134        129.51142
115.76710        180.43943        138.62108
118.67325        188.78194        127.83653
119.86027        77.44321        151.46942
120.75054        81.41550        131.54953
125.33141        79.17369        137.34445
120.07135        87.48828        108.69046
120.01397        88.19429        116.02840
123.29455        99.92960        107.15916
122.20655        97.01109        116.77752
117.28975        106.63589        131.05440
120.22651        106.58692        141.50798
121.15451        115.76154        148.66073
121.96010        116.67554        110.33309
120.17852        116.24342        135.87331
120.40044        120.90399        115.96285
119.88422        124.02132        120.04627
119.11873        126.16094        125.79914
120.22472        126.19661        145.80606
120.10007        125.93135        151.81002
120.84537        136.00914        158.10323
119.98618        141.15400        155.54464
120.65373        146.88051        151.26632
122.17383        155.33417        160.62221
121.20968        160.80189        129.86581
120.80610        160.34919        141.55989
120.36912        173.24693        142.39950
121.56799        179.29269        130.16157
120.52935        186.08461        154.81399
120.12157        190.44885        151.05159
127.97111        99.18337        126.20471
126.38011        104.56875        134.88255
126.20043        106.16093        112.17197
125.39208        105.04255        155.57029
127.82334        110.83955        115.76134
125.49889        115.89070        106.18941
128.16518        118.27630        119.16149
125.86208        120.90968        139.73940
126.57420        128.63060        112.15732
128.38338        125.13232        153.84583
126.14260        131.19696        160.84925
126.16028        131.40891        121.00322
126.01332        131.51171        149.57404
125.95739        135.31581        145.56399
126.14606        139.75647        139.43555
126.29152        145.99579        145.78679
125.96774        145.98604        151.01227
126.06324        154.02943        142.19619
125.98774        149.21418        155.82246
126.35637        158.79602        131.10698
135.88981        165.72584        152.52612
126.67693        159.47634        135.92509
125.83433        161.05983        140.97330
126.04027        166.56440        126.18177
125.97170        166.46846        140.71750
125.79889        168.84578        149.25597
126.00125        178.41123        135.48291
125.92165        179.91219        154.99517
126.09916        180.58788        118.32989
130.32173        187.52312        120.52412
134.35823        177.73818        128.07510
126.08559        192.33434        146.33971
132.62503        78.54670        137.70660
131.06808        85.68802        131.14425
129.78612        110.36186        103.44970
131.37348        111.06279        141.42313
130.04989        110.70752        159.93727
129.80407        115.84235        94.86235
131.65769        117.22076        141.09121
131.69885        120.23583        85.99385
132.65050        118.05144        110.37881
133.23885        125.91005        166.89375
132.51278        135.00037        154.52309
132.68871        136.47144        140.84350
130.62198        143.39047        155.48892
131.71854        141.20160        160.95491
133.89079        144.27744        133.65112
131.44921        145.55633        145.84098
130.97710        153.43711        145.62738
131.48070        150.16045        159.51840
131.34759        159.01641        130.01446
130.91984        160.93862        146.03526
130.00951        160.73273        160.59281
133.90637        166.40626        136.68694
133.50104        181.85044        152.88861
133.50346        181.50981        144.77409
132.94061        191.96926        142.28915
137.80564        100.59055        114.98524
133.72508        100.96769        139.54389
137.36125        110.58612        108.89230
134.14717        110.72052        145.63685
135.36496        116.81665        151.01229
138.54477        120.61139        91.07164
137.81657        125.45375        99.51814
139.14866        126.28081        106.29417
136.48794        128.80600        110.68434
136.34949        130.37014        119.09820
136.09310        131.52655        125.90234
138.62507        131.85475        155.24647
135.77102        141.09487        114.62240
136.18645        141.69633        143.47043
133.95096        141.42337        151.01033
136.81579        141.91981        166.02979
135.31373        149.07111        126.94087
136.16370        151.42547        136.18610
136.03493        149.14398        140.85543
135.84379        155.42919        131.59751
135.25877        170.56462        131.24803
142.83033        178.15801        144.31711
142.80198        106.39591        107.96210
143.32814        113.72217        100.91484
139.65079        130.97270        81.30171
141.16242        130.34644        76.07312
141.56091        135.39969        160.89365
140.68261        137.13590        127.29277
142.46955        135.98091        151.54172
140.07271        140.00244        91.39377
141.20395        140.74599        131.47498
141.43290        149.03356        122.24103
140.01408        145.61540        145.11653
142.10274        149.18722        155.42670
140.47933        153.34527        145.38780
144.00379        155.62835        135.26222
141.36883        161.67619        122.12930
139.79242        160.82680        131.95695
141.28715        166.73078        143.53856
141.18918        182.49381        131.60465
143.84500        190.04787        137.94205
145.32783        86.01686        135.20897
144.30271        90.68157        125.66124
146.06521        100.49121        105.85881
145.44761        110.22308        149.43539
145.97916        114.76120        90.80707
145.37096        123.58367        110.13335
147.64029        131.58696        116.06330
147.23857        131.13950        135.82861
145.39725        135.87424        120.09476
153.00105        138.93230        125.21080
145.40001        141.51596        152.02335
145.37028        145.88785        93.83999
145.22665        160.66985        125.74700
147.86593        171.11172        145.86355
149.99887        83.67819        138.79157
152.94345        100.30859        112.19861
150.94748        108.49071        111.13556
151.15933        113.41738        92.89142
154.57525        112.96649        105.74210
150.34326        147.54200        112.24609
152.39400        162.89445        145.96400
150.82952        180.46199        136.19281
152.89875        185.12107        134.55610
155.11913        90.95774        110.64567
155.73135        91.02890        150.16973
156.06568        98.22583        100.78359
155.41555        96.07340        126.31678
157.03023        120.68664        119.92800
155.59333        125.87568        121.09947
161.14874        95.18200        140.76107
161.41023        100.98787        107.02841
160.62968        106.39282        106.55546
160.78399        110.28187        110.28273
159.13190        131.70814        91.43320
164.90417        116.28978        100.35370
169.33504        118.54686        107.47677
166.15257        134.37302        109.47092
164.92932        137.20870        126.88488
164.70778        145.84774        104.41017
170.26335        125.36844        104.57241
173.90636        123.22003        116.09690
