103.30470        216.07710        171.22201
97.91590        199.22903        176.34070
97.67048        207.02089        173.14809
102.45648        208.50674        184.45070
99.17916        226.68605        162.56850
101.23585        226.64590        170.94281
106.02567        225.10103        180.33006
99.51965        202.71157        188.43100
101.60722        219.19909        174.03846
105.17946        238.08028        161.38888
104.47128        246.89274        154.86475
102.73984        245.62040        163.71378
109.21046        188.89778        181.57284
104.44358        194.22363        179.49936
109.77071        194.10522        188.88643
106.24114        206.17372        173.01604
104.27147        213.91519        171.58204
104.38229        218.93887        188.67367
104.07940        228.53093        158.70724
105.28657        240.09838        174.99675
118.63633        140.15759        167.11821
119.15366        143.23396        180.40322
109.12668        144.16765        196.29831
112.74003        151.16445        176.08634
109.66925        160.06327        179.18874
112.40341        168.75755        193.79741
109.79439        174.04173        172.45609
112.42823        172.97923        183.63019
117.74359        180.22191        179.96265
113.09323        181.13440        196.17744
111.60134        188.76510        188.66597
112.01670        191.80224        198.22762
111.03209        197.33077        179.30959
111.68084        193.87678        204.29088
111.45343        199.36718        188.75137
127.13292        206.44950        203.37437
115.08581        206.00731        187.59456
113.38398        127.80650        169.02688
114.03605        129.00552        174.18684
114.17098        129.62943        180.40554
117.39848        142.99059        150.29265
117.08167        143.90362        174.24281
114.34462        146.00267        208.73488
123.21353        155.44328        170.09772
116.86021        149.21839        195.32613
139.63064        162.41930        124.41672
118.02849        156.49077        146.81180
117.51474        156.10856        187.53146
113.63706        158.15786        163.07994
113.44483        161.98794        193.94406
119.90434        163.61847        138.45818
114.09689        163.26725        176.58798
124.45533        180.30934        132.90719
113.70027        168.98769        188.84774
121.15017        169.04478        204.30193
113.79594        169.46153        204.07725
118.24269        171.42042        145.07666
120.10891        178.46196        194.09740
113.62499        188.83593        194.13732
115.57851        199.29890        205.34695
119.85148        220.32975        192.08919
120.75247        123.35012        187.03417
120.72649        129.62488        144.50020
135.04548        128.44395        182.04326
123.13807        132.85559        156.85447
118.63170        135.33785        174.55961
118.93174        133.01147        192.64911
127.70916        138.20937        196.99047
122.33982        138.63078        158.49419
125.93370        149.25459        156.75461
118.85929        149.07550        163.68546
121.79923        158.38882        157.79258
123.33396        157.35529        206.39562
121.46839        163.62518        146.36433
121.33287        169.16346        194.20187
118.80176        174.30092        183.62650
118.96366        174.20295        201.08983
121.03149        181.41257        199.16875
121.53538        182.27233        205.57772
127.24356        182.56905        158.33876
119.00061        189.62654        162.04343
118.66861        190.60590        170.36482
121.24396        190.79648        182.62767
123.18290        190.55949        191.88181
121.32083        188.95297        199.42762
119.14606        188.76134        205.52198
118.58531        193.95898        189.02875
118.82041        194.10048        194.11946
118.88716        194.08392        199.14753
129.22070        187.37613        210.02859
121.12486        199.34361        188.96327
118.81260        199.31582        194.19473
118.77044        213.87696        188.75475
118.85173        220.65504        182.38370
122.08441        225.63794        168.79082
124.24233        133.59497        144.35073
138.94325        136.98677        151.92876
124.43026        144.45022        163.58249
123.86073        138.74047        188.84342
124.11343        147.43960        149.14548
124.05082        149.22964        138.71381
132.35381        149.13442        141.78727
124.37348        149.43764        199.04892
123.92430        156.49331        138.46186
124.03438        156.43005        143.98886
124.16869        158.51113        188.68995
130.01938        156.28733        203.39171
128.41777        163.74401        204.54216
123.95952        168.97060        124.14986
124.01744        168.94238        131.36916
124.20838        168.92558        138.48402
124.05771        168.89993        143.48291
124.15096        167.17693        177.55935
124.16113        174.28194        138.48636
124.25014        174.30897        145.47523
128.09203        175.07490        199.29396
124.27367        174.24113        206.56003
128.60137        190.14793        166.17568
129.65589        190.99236        176.81985
124.15392        188.86924        206.51679
134.00805        194.02947        129.33190
139.01701        202.32871        151.05256
125.82458        194.27475        199.30069
124.04690        214.90924        184.01377
123.78039        213.93283        194.13594
123.94451        213.86212        199.30956
134.90123        221.73665        175.87733
129.31248        222.47941        200.79392
124.32245        224.15176        183.45245
124.43168        227.82643        179.43169
129.36757        115.30121        183.81314
135.91203        125.92047        172.27589
133.91338        150.73466        182.87350
136.11933        145.56372        130.28649
131.09200        149.02109        149.07928
131.26258        156.28083        138.70234
131.21746        156.31900        143.89953
130.85940        156.39794        149.11596
133.75119        153.99111        157.10719
133.01589        165.83206        121.59670
128.91158        164.03956        138.49298
129.23658        163.59320        143.91068
129.26528        163.58192        149.08882
135.72397        173.86771        138.99385
129.23615        169.14782        143.68783
129.23907        169.08274        150.08127
133.78376        170.35275        164.35032
129.04324        168.86832        168.94792
131.93669        169.21157        176.00094
131.93298        171.26291        194.17872
131.33345        169.00777        199.47108
135.49931        169.36390        205.68735
131.17059        174.34417        131.31786
130.83028        174.25616        149.26454
131.38246        174.31224        208.47944
147.29311        191.29886        159.39512
137.03927        174.63527        180.01460
128.79198        177.62103        194.14909
129.26867        193.70559        138.33278
127.71167        201.51443        158.46696
130.66019        204.63536        180.07427
131.36666        213.94827        169.14387
131.32574        225.96932        185.29785
133.03118        225.21014        193.91716
139.09153        126.15145        163.32699
137.05237        133.02533        140.35225
138.30266        155.84913        118.49786
133.36241        188.72341        149.05618
140.92853        124.24533        142.66979
138.78891        136.79286        195.18300
150.65444        141.74998        118.98397
138.48886        138.58851        143.72285
138.42671        138.23415        163.60841
142.91655        137.73033        191.17457
138.80889        143.96457        124.25799
138.69941        143.78502        138.55023
138.59796        143.80753        143.93311
138.74558        149.30419        124.08804
138.30030        154.21903        143.93500
138.54101        154.25001        179.31783
138.74171        153.80150        199.44943
138.65850        159.89140        148.87654
138.76232        158.62245        157.99923
138.90675        158.68292        181.60523
138.55716        160.41929        191.69299
138.39489        161.24343        206.34113
139.11431        170.37594        158.82652
153.08335        171.49037        178.08028
138.38103        172.29140        194.47320
138.60807        174.16220        206.64047
138.76518        180.42353        117.44928
140.78010        183.10631        132.95547
138.63653        181.31612        158.86366
138.45370        181.59401        169.35327
142.17859        179.01708        207.29327
138.51933        180.68960        214.02141
143.97723        188.54736        174.57739
138.79143        188.62406        178.89482
138.54112        191.37213        210.64097
138.30591        194.10115        179.11074
139.03592        199.01829        177.64407
150.71894        196.79034        196.29615
138.66036        207.23797        164.88712
145.26598        213.69555        196.08639
142.71524        218.95307        157.15458
139.41935        225.42578        188.76881
138.44498        223.57072        207.33318
146.98753        223.43466        160.20706
141.79026        224.92109        168.98367
138.48497        224.17419        199.33071
141.20651        233.23133        168.69839
143.89552        129.42566        168.87990
146.62226        132.25696        132.08903
143.94353        131.30652        143.91591
143.92604        132.06176        188.48809
143.98903        133.40073        138.60063
143.93423        141.19335        131.35425
143.71665        138.55578        138.52432
143.89238        138.26467        143.79400
146.78222        138.30984        149.18013
146.58430        139.87427        156.95951
147.30888        140.11344        163.73078
146.66577        138.37246        168.93127
152.32938        137.30562        173.26507
144.16995        143.92237        121.77588
146.96560        146.12725        140.16594
143.62831        146.64229        143.66740
147.94426        155.08239        184.13089
144.06992        156.23484        123.87482
147.27867        155.82274        133.12067
144.02975        156.36707        183.09340
144.02256        151.84026        188.64873
143.91028        153.31442        196.74208
162.98493        156.04795        214.70006
143.24048        158.59863        143.92345
143.66122        158.58478        171.66228
143.95737        161.73855        193.62706
143.94769        166.87117        209.75631
144.19552        169.37538        143.73534
146.82172        169.97330        156.12874
143.91779        174.09567        123.91584
146.77864        186.00593        122.62076
146.42438        181.52055        145.97648
143.94627        180.40811        158.88648
143.80309        180.48661        170.32636
148.08268        183.65282        188.55079
143.84812        188.61505        206.80078
147.11960        197.04521        185.49700
143.62451        193.96152        204.17242
149.11435        199.40555        134.59982
161.95578        198.47058        121.25396
151.92747        206.36878        138.57601
143.26051        202.13792        163.27796
144.02169        207.11229        192.89530
143.96400        204.37468        199.14244
143.76816        208.59371        202.93817
151.22148        217.31785        145.49040
143.90338        219.23319        163.68179
147.17504        223.95870        200.77490
143.64704        227.34704        180.62401
143.83593        224.16003        194.03827
149.09460        129.50481        163.53364
148.83867        124.57127        172.49746
149.17014        131.36204        138.58271
149.15531        131.33841        143.99765
150.42441        133.58746        181.43404
149.60113        136.07447        189.52011
149.08091        138.55200        131.24229
149.17584        138.41177        138.61007
149.13511        138.37872        144.00152
149.19431        143.88814        124.16947
149.13983        144.46197        130.44368
157.78311        139.84880        156.52591
148.62131        144.16065        168.91466
149.39353        154.45931        199.23592
159.04985        156.85319        145.25452
149.05530        161.72203        193.89187
149.09578        163.47632        113.87499
149.42297        167.40188        142.44324
149.36359        166.36343        206.70209
149.55231        163.63726        213.67631
149.05806        170.64336        122.31704
155.37618        176.51153        123.87371
149.10473        168.86782        213.65182
148.98010        174.13098        118.92818
154.64252        180.05557        210.08891
155.66227        187.23296        127.88264
149.29420        180.42012        158.64038
153.04687        181.59559        194.09991
157.86381        196.93828        155.75714
149.16373        207.14345        196.88121
158.22603        223.21152        165.36525
156.89389        225.63146        184.66477
149.22709        228.24505        193.96216
157.41792        134.77487        129.03011
156.34943        131.41277        138.67390
155.60524        132.04659        143.91144
157.44458        131.95595        156.37416
156.52645        138.77282        124.10335
157.05093        140.14185        138.60051
156.38757        145.69461        123.97102
155.68273        145.33777        130.17873
157.08465        155.44646        184.60766
159.31253        154.03792        113.48795
156.58456        166.84585        143.72517
154.22822        163.56573        194.23087
156.80988        165.95818        205.24412
154.40096        168.89276        138.62483
156.82385        169.21540        154.92302
155.70997        174.36924        112.69125
156.36901        180.77347        158.08973
156.60354        181.33344        199.02759
160.87841        180.44702        167.07944
156.36751        193.19935        181.56543
157.44375        183.16136        183.78778
157.34230        183.40910        188.84759
156.51267        194.05057        137.70286
156.25127        207.15828        143.83289
158.16162        209.24312        193.37603
156.24372        214.15443        150.14120
156.54265        219.31717        174.22672
156.30158        219.22857        188.78837
156.04820        219.06526        195.04428
158.42365        138.64848        191.27765
159.82277        148.79728        164.99450
163.98129        156.34681        172.68988
161.53604        166.35118        163.67860
161.05045        174.40528        196.84714
161.17102        188.77995        111.67304
169.03507        191.30497        162.77018
163.60117        132.24360        132.02406
167.76575        137.19731        149.50365
165.35404        141.21511        114.18205
163.68845        133.45746        138.67199
163.63880        138.55371        131.21767
163.73249        138.50847        138.70280
165.79674        141.31078        142.78717
164.13329        136.78281        193.53042
163.74966        143.91493        118.86254
163.65438        143.83432        123.92678
163.79931        144.93670        131.23864
163.40146        147.42708        183.07080
163.77862        150.17837        120.85024
163.50972        155.94656        196.79122
168.57272        156.74633        114.60549
163.76359        157.77567        138.49026
163.45285        157.76781        143.90489
172.00415        156.42305        158.41047
164.82274        158.71478        179.30974
164.95486        162.92416        187.91478
163.72999        163.60837        111.49823
163.41371        163.14497        123.99945
163.67438        167.43470        143.81203
180.92704        165.33512        217.02685
167.49060        171.23948        110.29493
163.42661        168.59512        118.63377
169.40152        166.01126        136.53935
163.56294        168.81208        154.42645
166.27498        170.89104        187.66890
163.71203        170.64731        219.16293
163.87845        174.35782        109.54762
163.58227        176.65196        126.75290
165.17141        177.86408        144.04935
163.68064        179.63573        155.83042
163.60680        182.73063        198.60740
168.16546        179.82710        132.48049
166.10948        191.22391        175.38385
163.80894        190.67462        194.23999
163.83847        189.86914        201.18250
167.61523        191.99323        218.97790
163.72129        194.35135        138.46210
163.58699        193.74792        189.05450
175.26628        200.70626        120.13115
163.85170        204.08915        143.53305
168.85780        209.19390        179.32494
163.71572        209.08461        154.19721
163.97804        212.81836        168.91481
163.60542        213.72002        133.41112
164.91335        214.58171        140.99752
165.59556        219.06320        177.15074
163.62905        219.17571        168.98323
173.36949        132.55409        223.33033
168.89424        133.51108        136.13039
175.04064        139.90985        190.11580
168.76583        141.57943        118.95969
168.86840        138.79010        124.13562
168.99508        138.64642        131.33382
168.92897        138.55134        138.60795
170.59862        138.74229        219.49097
169.03595        143.89092        124.04310
171.70445        146.14986        131.25066
169.08082        143.74210        138.54052
169.52644        144.89991        176.90512
168.99886        146.77719        206.52499
168.83554        149.11999        118.87159
169.05479        150.92374        123.88313
170.53694        158.49351        196.26188
172.29701        154.91281        143.56976
168.80446        152.69841        163.33408
172.92458        163.66224        108.12778
168.95374        163.55315        111.50294
171.48287        168.89070        144.20886
168.86034        163.90175        163.43817
186.41087        169.48156        177.88429
176.24510        172.03106        110.22649
170.50932        168.43652        154.72935
169.06395        169.81633        218.91264
182.05665        180.59610        138.14132
171.44099        180.34909        155.39681
169.03180        183.00410        198.66848
180.79843        189.31634        223.52608
168.89201        190.28532        126.01646
169.16584        188.12727        168.61675
172.41836        187.02938        195.90136
169.03915        189.88916        201.20366
173.74098        194.23308        149.36636
168.90490        199.50809        135.20559
168.83558        200.67001        162.46428
169.19714        199.47275        168.69256
169.34221        198.96956        222.72846
172.27708        206.18871        132.00525
168.93722        206.63519        138.50393
176.68820        208.00896        151.02536
171.49399        212.22174        168.99721
168.93108        214.80764        143.76667
177.86755        140.85219        132.90641
174.76145        140.12598        121.61035
175.16741        141.32957        139.17454
173.92130        136.73587        181.60898
174.12741        144.04585        116.49742
174.07022        143.37200        143.80103
174.29808        147.31466        213.83828
174.30734        149.32497        116.33839
174.05826        149.15754        124.08391
174.27124        147.53103        177.71690
174.82402        151.81059        195.48716
182.39998        155.77041        113.13695
174.29503        156.41499        118.66040
181.02104        157.71790        130.64499
174.26826        157.14400        225.51133
180.16799        161.41632        205.82600
174.08737        157.95784        219.33136
174.47110        163.59307        121.13854
174.25710        164.27953        163.74248
174.38396        168.94614        188.41553
174.22357        167.94366        218.97819
174.14566        168.85884        213.91573
174.52045        174.05690        168.54524
174.53676        174.13539        174.47394
174.43293        183.84791        109.72837
173.72263        179.55050        119.27968
174.17609        177.73636        163.81257
181.07633        176.49725        176.47972
174.12948        186.22693        133.96877
177.03224        188.54479        170.14359
174.33243        187.25624        173.85191
182.48163        188.75237        202.32589
174.13217        194.07748        115.44752
173.68220        193.71674        128.77529
173.58071        194.67207        143.47496
180.28192        202.15244        171.85908
173.93235        200.76703        112.30583
174.25228        199.16157        118.83440
186.50143        202.43319        133.60855
180.60643        142.88232        124.13076
182.40216        141.23013        208.76271
179.37890        138.81272        221.60233
181.39113        147.09593        119.05563
180.96869        148.53513        178.94659
181.60208        146.66316        220.50788
181.40738        149.23135        131.26253
182.62413        151.36568        204.87871
181.44336        156.44270        118.82616
183.80083        163.70711        111.64505
182.33774        165.36565        118.69377
181.38175        171.02889        191.34708
181.17314        170.18103        108.96266
176.35843        167.29132        158.59623
181.99791        172.94373        131.37844
181.47279        173.66568        199.41535
181.27702        181.10953        110.75817
179.17894        177.89259        158.58121
182.47026        179.19346        213.82684
181.63626        199.45560        138.63118
183.82428        164.03076        221.58051
187.30180        168.94526        122.18241
189.39535        174.18915        118.74482
183.56210        174.27114        213.43072
183.72320        177.57147        218.96608
186.35501        194.12949        124.03077
186.43908        194.15895        143.99586
183.60957        199.39077        149.12228
181.70135        217.34795        149.37480
188.81620        144.14107        219.94515
200.39793        145.81053        197.91776
188.95606        143.24399        201.99847
191.52800        158.06197        124.08953
195.48960        167.96244        136.61960
188.91639        152.78969        199.63165
188.81718        156.03156        216.53509
188.76938        163.75731        118.88240
188.96904        163.56606        126.52976
188.72974        169.00418        111.72531
190.96182        170.81427        131.30291
190.81534        168.89693        191.21046
193.32317        181.49654        115.31924
189.03445        174.11013        123.89609
189.01987        181.49192        124.14019
188.71726        181.24972        204.37349
188.92361        180.13169        215.39405
188.71404        188.60047        118.88234
188.99896        188.80715        124.04258
188.93590        188.59660        131.51028
189.00487        188.78765        205.85822
188.87358        194.04713        138.59927
191.04847        196.16256        150.72604
188.72517        200.91464        124.37849
188.77594        201.65005        138.56950
188.74105        199.10669        143.76220
188.61961        199.08192        198.66248
188.42700        205.60629        143.98451
196.35707        147.08578        221.53450
195.13790        162.52727        113.78271
196.46285        163.77465        118.95031
194.16825        163.79153        131.19032
194.11024        163.70783        188.37767
198.41678        171.14941        115.76974
193.90050        169.00360        118.88297
193.99753        169.03576        124.09581
192.33514        166.22285        199.42099
194.13340        168.89526        206.78979
194.05992        174.15600        124.19155
196.66404        174.34358        131.25872
194.25341        174.07821        206.50890
194.33024        174.37101        218.92357
202.70563        178.46409        215.77204
194.13603        181.48852        124.17402
194.08012        181.53013        131.41433
202.88408        181.76591        133.58475
194.03735        188.75609        124.16928
194.12261        188.71151        131.41307
193.67851        188.72204        199.66423
194.02515        193.93568        131.36186
194.10377        194.01622        138.66129
195.75971        197.05495        195.89409
201.19269        121.76394        210.39424
207.46840        122.71155        196.16787
201.23624        129.22875        208.03711
217.98419        137.77897        196.09040
199.54547        133.45909        204.47308
202.97098        138.73844        199.87515
199.35932        146.34792        226.44837
199.18022        155.43492        215.91368
204.07805        153.39454        240.57949
198.12406        159.02151        138.18505
220.19439        141.61504        208.32556
201.00762        163.51760        188.53056
203.95259        163.65117        227.04457
200.30984        169.06468        124.22689
201.61958        169.01774        131.33179
202.05890        173.04306        148.19879
200.94626        174.28850        124.24881
199.38570        174.17846        138.49568
199.30201        174.30073        206.60570
201.75649        181.45097        124.25031
199.35594        180.90278        149.29395
199.14601        188.70339        124.41258
199.26838        188.61138        138.66460
204.82313        187.13669        148.51696
200.51779        195.31163        131.36503
204.20799        193.71090        141.23417
208.13673        119.39470        182.35530
211.15480        150.87152        216.54042
205.57328        183.95428        138.48945
211.90498        122.49499        204.17408
214.42937        149.88217        182.92128
221.44667        129.83490        182.49274
213.94516        124.02155        188.96654
214.41448        133.25475        216.99274
213.78365        138.61398        199.25298
214.24685        143.71123        194.13491
223.81098        157.93344        207.00615
226.14259        173.41967        206.04267
213.39294        192.29634        148.84927
225.95936        120.17706        191.17100
218.91244        122.90784        200.34734
223.75300        143.36980        222.00254
219.08261        149.14979        219.27503
224.08405        152.80803        224.34060
219.34694        154.63527        188.89108
225.33188        156.64936        192.22771
219.09386        154.83444        219.20717
225.43595        165.43780        217.48208
227.21885        116.50697        182.04132
226.19026        145.97692        186.39257
226.44233        147.42086        215.52847
228.51998        143.90651        218.98046
226.88881        157.92862        199.23055
236.46881        151.79544        218.92161
233.68800        152.82040        199.84368
238.56335        155.67397        201.86547
236.92719        166.09895        214.18935
233.91328        177.49607        189.65108
240.93867        143.96376        191.78486
243.78126        144.08328        199.35826
