111.56941        139.58563        174.44574
113.38992        149.43187        168.95996
113.34309        151.64878        178.86034
115.06035        215.18478        190.27786
118.78955        138.97063        168.63236
122.97232        148.01387        163.99857
120.76444        149.27384        172.31695
122.55043        159.78304        184.33373
119.01957        170.39522        122.16787
119.83757        223.31998        192.36956
124.00074        192.57890        127.77545
122.75671        203.27465        208.55428
133.92474        150.65560        185.97694
127.43268        151.88277        138.22954
131.44703        161.05267        186.11867
128.41571        162.44653        164.29583
129.16465        170.83531        168.45597
126.36079        179.53562        129.06101
131.44731        183.76280        154.77860
131.89126        182.10003        173.31570
130.01614        188.82524        173.71849
128.95782        193.56909        162.83256
130.55992        202.53585        196.60830
133.55871        153.97590        172.51409
133.34225        163.45004        176.86392
133.14252        171.10750        113.67658
131.91821        167.25736        119.03529
135.13392        179.51069        145.03755
133.57378        186.23008        133.55135
135.36209        185.59645        164.48916
131.63460        191.21565        118.60740
131.78993        193.99146        174.01462
132.88137        197.88603        129.06542
131.99952        204.30013        174.52306
138.72580        148.84340        177.63361
138.37593        160.96903        178.60992
138.76429        162.28916        188.37049
142.56917        170.61554        118.78836
139.53429        173.73963        126.75889
141.41331        172.62053        155.04494
141.66712        171.36495        177.70718
138.15816        179.42092        118.99059
138.64396        183.69429        123.59176
137.48741        185.45532        129.46455
138.88133        183.81280        147.44699
138.65337        183.07095        156.27650
138.59914        195.30877        156.45147
137.14729        197.34830        149.50433
141.13180        203.21159        163.41461
138.67583        202.81949        188.85571
142.67735        198.89625        195.63221
143.93735        143.71214        182.97325
144.06644        154.12539        194.10602
143.35304        157.78289        179.44252
143.92878        163.21617        189.53252
149.40743        170.84893        168.25534
147.38040        185.35994        133.33794
144.00529        182.88400        156.64443
143.99728        189.16866        148.55230
143.31246        191.03548        169.18737
143.91938        188.93770        174.47894
145.67541        187.29228        179.32548
142.20793        192.63897        163.81112
146.51126        198.99652        181.37368
145.66757        203.22115        153.09647
143.59729        200.53995        174.47323
149.08633        152.85949        180.12185
149.13187        156.45685        197.53166
149.41158        163.81295        180.80334
148.91480        162.32957        191.09475
153.84466        170.09942        186.33259
149.07884        175.80472        117.38252
147.85436        174.64267        142.31754
155.00635        171.49638        152.77153
151.36989        174.81920        180.39116
149.02651        179.32228        133.96815
149.32933        182.45008        142.41111
148.53046        185.21313        183.61953
149.25701        183.30184        188.64597
148.52036        189.18270        204.52799
149.35930        193.45810        154.77325
149.21013        197.08979        191.03374
148.59228        206.76398        191.92150
149.37877        209.90569        201.95489
156.31410        153.04746        217.51016
154.76603        162.56190        112.84156
154.92879        158.78511        118.74008
154.04703        159.66753        123.84322
154.39245        158.21071        133.56092
156.33915        161.36552        182.10616
159.78612        156.27030        193.83896
153.24644        158.41936        208.90117
157.40239        163.56762        215.16424
154.14721        168.74252        118.55794
156.76298        168.74554        140.64135
158.23546        174.03660        171.20190
156.21478        179.21805        173.98493
157.17574        182.15026        155.16246
158.65901        183.44371        181.85670
151.60009        188.59344        143.29666
153.23781        194.48183        145.39558
157.22034        197.70198        164.20982
158.13305        196.72282        183.43372
154.28748        193.80158        193.82977
154.38870        204.25811        195.08869
152.57137        207.19664        143.47911
153.46992        217.63155        192.73721
152.59681        223.46464        192.23490
164.54450        148.45765        213.12277
161.95959        155.50848        224.27656
158.32866        158.45499        138.69238
166.46593        158.73330        148.68101
162.46636        157.33926        169.77005
157.93292        158.01015        204.78265
157.95331        165.04382        209.09024
159.97067        169.05229        119.00091
162.17881        168.90153        174.68395
158.43841        168.55250        197.50938
158.83646        174.16581        119.06542
158.82140        174.08020        124.07787
158.61397        174.08047        130.71669
161.88502        179.60564        119.00437
160.40384        175.94816        163.42192
160.62566        181.40179        196.32529
158.59582        184.05443        128.96194
158.74630        183.51307        169.22444
158.50048        183.41640        188.46428
158.74187        190.12280        119.36964
161.89118        198.95239        154.33100
158.73573        202.09805        179.32472
158.01127        208.91371        145.13972
158.92975        208.45102        179.43830
158.33584        208.12824        189.55893
158.37327        219.99017        157.38676
163.95901        149.32789        201.83478
167.96990        156.68609        207.39083
169.29159        158.43782        135.84646
167.06087        164.15587        160.50883
164.32428        158.09808        163.71593
163.38623        162.11604        176.32195
163.29999        163.34372        124.61525
163.84179        163.56523        185.07486
165.40293        163.92332        208.79607
163.49801        163.49205        219.09608
163.77927        168.69539        142.27839
163.69006        170.21284        152.74104
163.66353        169.19251        162.04114
163.86136        168.89591        197.52080
167.38848        169.11688        208.99445
164.11824        169.79063        225.60619
163.75837        172.69193        132.73372
163.55363        172.96682        184.95929
161.75535        174.57744        194.15000
164.05412        171.27478        214.11003
163.15534        172.44749        219.08703
163.89725        179.45164        166.11986
166.22363        183.47746        113.75292
163.75162        185.15957        129.47798
163.57268        181.83817        154.58557
166.86341        191.08049        162.25839
163.85203        190.31219        193.84473
165.57110        194.25988        122.81594
164.20379        191.31734        173.81587
169.57440        190.58142        220.37336
167.13843        202.99766        174.11552
178.03462        152.92278        198.45886
172.38725        161.99982        196.35059
168.98002        157.95042        216.41092
168.41317        163.57858        213.79694
168.94961        163.48786        230.00396
168.78057        170.16019        133.26609
173.63285        170.04787        143.52785
168.83379        169.04961        152.92056
174.26852        168.71157        226.43048
169.13318        171.31629        199.31392
171.68642        179.33439        128.56218
168.85976        180.34990        156.08297
168.85950        179.59472        164.96627
168.98648        190.10646        194.06961
172.03896        189.76736        201.10868
168.96162        193.91882        175.53354
169.06882        204.29104        127.64082
168.77294        201.69283        159.95303
174.56580        143.84524        208.82121
173.86853        143.43125        219.34579
173.75512        149.22546        204.67327
174.29120        148.77531        219.06552
174.92249        154.85225        222.67596
174.02780        155.60524        213.96663
173.95324        168.33730        134.67106
175.35023        168.26819        156.34543
179.24304        167.51816        166.95624
175.44442        167.13929        213.88533
174.09773        168.36460        219.05492
174.80448        172.43578        199.40546
173.86000        179.12258        163.59843
179.91263        178.26884        222.69469
174.02982        180.58484        119.26918
175.76412        181.98428        154.48362
173.99758        183.46696        194.07410
173.40482        183.09005        234.92691
174.15696        187.02108        133.79495
174.47659        188.12048        174.18453
174.15673        188.78315        194.02506
174.23594        192.21053        126.38031
176.04818        194.21747        158.62603
179.06606        200.19011        175.24802
173.97450        202.75738        163.95462
177.74589        144.03982        204.55610
178.99089        144.07083        218.83237
179.42394        151.10967        213.72516
176.98854        153.54369        147.39651
180.14097        161.81669        205.88827
179.15557        158.25128        219.49305
181.66550        157.26026        228.15319
181.56504        163.98281        138.31636
176.50072        163.29694        227.96963
181.56887        171.43883        191.11146
182.50350        169.71639        209.09422
180.73220        168.92884        233.36213
179.13882        178.05448        124.23166
177.79512        179.02339        133.59670
182.17678        178.91598        138.54667
183.65804        177.83111        164.10657
179.30602        179.73230        179.19652
179.72180        179.53178        194.30579
179.54813        183.81600        198.66932
180.81019        189.17852        127.70501
180.69441        187.51146        135.99117
178.60049        188.51419        170.66356
179.78963        189.44719        204.61104
181.88528        188.65539        216.45604
177.86525        192.25266        224.19153
177.83826        199.54371        153.88871
181.37489        199.44106        213.35755
184.93048        140.93706        205.08225
185.02649        138.93836        213.26649
183.62015        171.51385        176.74180
185.21660        174.12453        131.33017
183.84144        173.87188        213.32843
182.13573        183.38742        108.27791
182.89658        183.53571        193.88011
192.27374        176.90498        228.98999
188.92780        143.94383        220.38925
188.40334        149.04395        223.89945
187.23983        152.72758        208.25245
192.92701        152.59385        219.35218
188.37976        159.74004        137.20446
188.79545        161.80926        183.27382
191.43265        163.76568        204.89989
190.86279        165.25122        222.31023
188.34038        169.43296        168.76640
189.58507        172.44681        174.19743
189.28458        169.06513        183.72946
188.70650        173.63708        163.12789
192.09762        177.69765        146.08148
186.78961        177.59777        158.33645
189.04671        179.03052        174.27796
188.60864        178.88471        218.68782
191.75778        184.03881        130.87094
188.57886        182.97105        208.65401
188.90322        188.32754        138.18044
188.60753        188.39526        221.44806
188.17410        192.71721        118.79527
188.82742        199.47653        169.11544
188.77705        204.43283        176.30330
193.91047        143.44027        200.63793
195.13486        144.91750        224.19754
193.55491        151.04971        194.16460
194.23591        153.09273        214.05126
196.57560        155.43378        225.40783
194.04856        158.72622        208.91274
193.56305        171.28165        138.84727
193.76704        177.85661        193.77022
197.29650        181.84996        205.62462
193.83389        177.80885        217.64062
200.74971        181.76447        225.34133
194.00079        188.38427        138.38041
194.49321        188.49049        143.76359
193.74656        188.69689        208.47480
194.32630        193.63955        133.11013
199.06528        138.53251        219.65608
199.33642        145.75294        194.11090
201.83008        141.65384        200.42464
198.99447        146.12668        212.52952
199.54382        153.95280        201.66589
203.86866        154.43985        214.88907
199.34007        154.07421        238.57190
199.61723        156.53122        193.90905
198.90833        156.82001        233.60236
200.01648        169.41802        208.93242
199.29274        167.13800        217.41900
197.38088        173.83645        123.92042
200.83408        182.29729        135.29946
199.09881        183.13061        216.24079
196.45268        189.13530        119.81463
199.02676        186.91126        146.26933
201.51446        190.71987        208.59365
201.16536        188.65373        216.82671
208.39284        124.27019        196.13321
202.70615        131.26938        207.62234
220.29961        133.46793        190.73875
209.12655        131.46967        201.29940
204.25655        136.90244        216.72284
204.30181        144.00399        193.52759
208.48730        152.96800        229.91069
206.23736        164.46118        218.25690
201.84122        169.19430        133.72210
207.25643        178.39408        210.12652
204.11683        184.21624        145.70485
215.27754        120.42249        184.36993
208.62088        127.83164        188.79708
211.38362        134.45546        218.78435
208.10960        138.71415        192.31444
208.97529        142.31512        208.39922
208.48620        143.91205        223.99182
212.63899        147.52925        203.69308
208.21286        148.91736        223.77981
209.11981        193.40804        144.27950
213.54905        124.31037        205.93969
212.12704        138.34711        208.50628
213.43959        138.73367        219.23378
216.44682        143.64751        221.41776
214.44965        148.84921        183.68767
216.40757        149.35575        215.65772
214.96447        157.81004        220.62209
214.44783        188.96719        138.83130
225.38689        118.99605        194.35622
219.46009        120.20898        199.20114
219.02756        133.16330        199.19850
221.17523        138.85411        182.96295
225.67514        145.34021        193.33127
221.22433        146.05310        207.75222
225.29505        152.29825        226.36734
219.24160        154.47420        209.16692
226.92497        158.52171        207.00520
225.08637        170.61892        207.11735
225.39246        120.24177        183.75315
222.78541        123.99517        188.37568
224.28671        131.96600        181.96715
225.76927        135.26618        205.24845
227.37680        142.36917        226.06135
227.07019        148.19555        188.26019
225.43022        154.41570        198.94352
226.33630        156.99947        213.74282
226.12113        163.48210        220.51053
229.56362        173.93870        214.40083
223.68277        173.48246        220.87032
228.18520        129.16768        179.24565
228.48153        145.76219        216.51909
228.63195        149.20737        208.22598
233.98692        155.19528        196.39278
228.42307        173.72078        196.29592
233.33140        124.46889        197.68851
235.67921        132.70337        198.51863
236.91192        138.48656        203.68795
235.61165        143.39023        209.08006
233.82025        149.15409        202.71342
237.85419        148.34469        220.54885
233.57794        158.59608        204.35029
233.25799        161.01060        218.20416
241.83190        151.59606        207.97642
239.67322        162.01428        202.80397
239.87781        164.40778        219.38081
243.82589        133.83203        197.63253
