157.38607        171.12991        154.43386
123.79869        165.42622        142.42739
127.98872        136.66142        179.43641
132.80078        156.46577        146.94209
133.02917        170.43470        146.45298
143.91473        218.13557        163.17473
136.86814        129.90496        151.68952
138.74993        138.05911        150.14592
132.73436        136.50469        173.53096
138.06060        143.41750        150.98544
137.58854        156.54578        157.08992
136.89549        163.14672        164.97874
142.39603        120.68347        175.54824
138.87121        131.92409        179.54446
138.44604        137.20156        170.21014
142.18391        149.11254        173.90988
138.01871        155.96158        143.34945
138.18850        164.50172        130.86130
138.08897        163.03755        173.69849
138.30168        163.01163        188.02849
138.00489        168.29726        143.37103
138.04367        169.99840        150.33546
138.12175        168.25966        165.89569
140.60805        168.39704        173.58190
146.71429        136.66799        188.70794
143.30514        158.41957        145.76577
143.31625        156.61459        158.59214
143.36091        165.63613        130.92754
143.36235        163.24137        162.90074
143.31728        163.17930        168.39103
143.20582        163.00292        173.74340
143.51611        169.98181        148.53537
145.62050        171.17431        156.26136
145.09085        168.24304        162.97533
144.25774        168.37158        168.10307
143.17761        174.16705        141.94380
148.18146        213.13122        157.97762
145.98612        223.37266        158.72591
150.42496        120.12848        173.62175
148.54194        137.65966        171.67762
178.79734        158.39438        196.69901
154.83866        167.59179        154.39604
148.42291        168.56680        173.79607
148.51438        173.70987        168.64701
156.57260        178.51673        204.07167
153.01978        198.59286        159.24920
150.47110        205.80960        160.39313
162.50471        139.01508        170.89383
155.35405        139.86114        181.58535
158.99305        158.67693        169.45343
153.63188        163.18444        163.01334
157.73748        174.15456        145.89247
155.99767        173.49747        212.90358
157.21999        188.13678        174.84312
160.80084        130.94324        192.82752
161.33222        141.00610        191.79442
160.07020        148.98028        191.43131
164.91627        160.80582        191.29211
179.53440        136.00004        205.82431
166.00565        156.00210        180.46126
163.12840        160.63404        198.73176
163.04332        168.13127        198.66908
163.18711        173.67956        198.69526
166.81803        179.45894        225.49111
165.85840        189.21738        154.47137
181.58072        183.41875        182.15518
167.95176        148.73405        180.89445
169.42413        156.35226        149.73509
168.45678        158.26363        198.97811
176.95389        164.31935        179.53535
168.31816        163.15707        188.08955
168.02657        162.91311        202.00991
168.28980        168.27890        188.32306
168.25003        170.15551        206.03494
168.35898        168.29753        213.09781
168.44154        169.90761        219.34675
171.90867        190.23843        172.36853
171.23293        193.27893        180.78879
177.20799        196.16265        195.24114
172.04752        198.44058        179.70952
172.03419        205.49627        183.62258
173.18730        138.73245        171.93034
173.58797        155.98200        182.83270
182.15536        164.27801        131.29059
173.34964        163.13525        143.48342
187.18730        168.66441        159.73254
173.39017        165.67502        173.58650
178.50911        170.76733        207.12222
173.40351        180.17422        225.85754
173.59100        189.12457        138.11873
178.51527        193.21741        187.88992
178.49376        198.60370        188.01594
183.08113        205.42702        193.85389
181.07000        214.47153        184.19916
184.46146        120.53545        206.47091
183.74024        145.65025        191.55706
181.06567        166.13445        140.90206
184.22346        173.74682        193.83775
180.04153        174.67763        198.46031
181.95269        186.49729        129.12219
180.50567        187.77701        137.90940
181.58531        196.83269        178.32927
183.68139        204.67245        179.40055
180.83092        205.74428        188.01234
182.98980        168.38314        188.26538
188.53408        181.08281        151.43390
190.82115        159.11895        176.51744
191.90232        175.72206        131.81962
188.88978        179.30184        143.28161
192.08342        188.05011        192.83378
187.85619        193.30916        182.92135
190.68729        193.24400        192.48540
187.80758        198.51129        192.24674
194.75627        202.63297        186.45834
195.17306        132.71357        184.44871
195.32493        138.10938        190.65070
192.82961        138.58100        223.22041
195.72396        145.40201        189.99037
193.31888        163.04434        163.15786
195.42703        187.79048        175.62435
194.74227        181.00502        194.44976
195.08864        182.97486        188.03278
199.34204        163.28734        157.60184
198.29616        188.24344        187.98760
