147.53534        166.81882        135.70234
143.03636        176.23842        166.25809
134.34819        163.17906        145.23078
132.28014        172.94097        150.26130
131.64410        232.49487        158.84427
134.75218        123.83305        150.31525
137.35895        130.71048        149.11876
134.10292        149.02542        129.56550
138.45232        160.04826        180.75472
139.35162        156.61364        156.75071
137.67533        177.03005        143.70603
136.52331        221.65031        162.35340
141.02792        138.11035        146.64723
150.92705        147.40426        142.19101
141.63892        156.08489        135.18929
141.28879        154.61374        172.37224
164.44504        167.67260        179.48920
140.42227        165.20618        130.20362
138.13880        162.92647        138.00848
138.16166        163.22034        168.38859
138.11079        163.07444        173.58897
137.97978        168.21970        143.27693
138.00136        171.41938        149.26024
152.68562        169.11584        154.01559
140.57585        168.37638        168.27255
140.60223        168.38851        173.59890
144.72707        170.98362        184.02855
153.80792        187.32679        177.88638
141.02323        232.34018        158.52112
143.22554        162.73060        123.67459
143.23578        163.31657        162.97992
143.34976        163.18247        168.41919
143.42008        170.06203        148.57311
147.15973        164.74944        163.02819
146.23376        223.42515        159.82862
149.86727        143.63161        153.59007
150.14103        156.09992        155.41375
148.63093        157.96517        146.56263
148.76090        162.93632        168.29889
148.82110        168.32744        205.57249
156.58536        177.88470        204.09709
179.65265        176.22337        135.60007
159.20753        172.12781        215.96351
184.35811        150.93559        170.50190
165.99126        147.16438        190.33342
157.17326        149.05491        183.06789
177.35424        163.82678        215.41788
162.36220        160.58965        199.84705
157.83428        178.50006        148.17301
180.71074        134.56492        208.94589
169.54704        134.09404        221.52007
166.46016        148.50952        180.70463
169.60492        149.88189        212.10212
163.19431        161.34463        193.47794
162.89236        168.47215        146.86115
165.28100        170.77296        193.14977
162.90596        167.99591        198.78319
163.00607        175.65448        155.08942
162.97491        173.69609        170.96371
166.06993        179.27587        226.18332
163.05289        186.86821        138.05980
169.59307        192.52727        148.88385
168.52833        123.67691        218.18006
168.59595        133.18773        193.18142
169.95922        138.14870        188.15299
171.93911        139.79947        213.02202
172.39208        143.99577        198.43887
170.69509        155.34283        151.02782
177.21805        161.41158        193.84813
169.34730        165.41744        149.46996
168.33711        169.47335        218.09893
168.77003        173.30335        212.92755
171.57704        182.07714        156.88219
168.29863        178.54521        170.41945
182.02378        191.94629        186.61327
168.30534        189.28134        138.04441
172.49479        190.13784        155.75841
177.29983        196.26439        195.87752
172.52237        193.81200        127.83992
184.19990        202.74551        182.04134
181.57480        118.90068        206.47049
173.27542        132.87176        187.98689
173.51714        135.50501        193.51277
173.10172        143.79414        223.17092
173.86351        164.96525        155.35376
173.38570        164.84580        175.36621
173.43940        176.86699        227.48914
173.66712        180.30709        180.74248
173.54003        188.18070        137.87445
173.68827        190.54113        173.62244
173.88185        198.72238        187.97259
185.53524        209.76046        190.26608
189.46536        132.15839        187.27006
184.69200        145.47459        194.30996
178.18560        148.70474        168.97061
179.14487        158.15624        158.00054
181.99780        166.84528        152.40008
181.00440        178.37147        155.94762
179.56584        174.88025        227.05168
180.01462        189.15627        143.38727
184.73923        188.84268        151.73842
180.77583        198.61064        187.92626
183.07476        153.52035        203.85536
193.24996        204.65281        160.89713
187.80973        161.86950        211.88436
190.51877        168.20544        153.65281
187.86662        173.67791        153.74996
188.18769        180.75082        148.50121
190.24409        178.26015        154.80150
188.01387        181.47687        181.25970
188.02311        182.97618        173.80031
188.26174        187.86897        183.01547
187.97118        191.59399        186.34804
188.17656        193.28528        194.52918
187.89396        198.59727        194.37458
187.84046        214.87708        182.87620
195.08727        138.12560        190.71591
196.12032        145.01477        189.39732
193.21711        155.73914        177.64079
193.37031        163.05068        163.22756
193.60303        181.69886        173.61487
194.36959        185.02034        181.36553
194.07471        181.69081        188.02372
193.64996        181.25435        194.48143
194.43292        187.98264        173.64185
193.46064        193.12240        173.71982
204.75789        212.79374        163.35977
