56.07214        85.09490        68.70419
55.66037        89.81211        54.29306
53.34407        87.40584        61.97182
54.70629        98.00115        54.56271
57.00197        116.74450        74.44835
52.85222        117.89889        84.21708
55.89778        128.26915        62.68542
60.24591        77.01164        56.75415
60.99725        88.30419        45.42461
58.04569        98.93523        46.17796
57.74607        97.04912        62.00513
58.72981        122.65571        69.36220
61.73336        119.18059        115.87509
60.15958        131.23810        77.81401
57.85510        132.47588        67.36181
57.83106        140.04014        62.76290
67.38405        81.83408        63.00678
68.45665        91.33920        56.26815
64.12481        92.04010        66.65637
64.67209        92.23630        159.42294
69.55403        98.15718        51.95885
63.22114        98.83361        156.04664
67.73366        104.53511        39.23730
66.80533        105.44080        105.86847
62.26515        101.59771        169.72649
63.26494        108.14736        162.92952
67.26897        115.32136        71.99883
66.89974        115.56559        105.59815
63.41954        112.24514        157.33717
63.11772        117.47637        46.67887
64.13533        122.01600        82.10972
65.27628        117.14496        175.63163
68.72779        122.36273        32.61297
65.11010        125.19139        61.72949
63.11853        138.94181        60.98108
63.60704        137.90865        67.30958
69.60263        143.31112        73.25370
65.62105        145.74157        67.65079
68.85976        78.45710        47.18037
68.47221        82.77978        57.10269
66.96725        85.67301        77.97777
70.55836        87.84437        70.75704
70.64219        92.06856        41.71836
68.86149        93.41795        177.22545
71.15198        97.81821        151.04954
68.05495        102.81572        47.42123
70.57462        102.60446        61.12124
67.62176        102.96019        152.39355
69.83539        115.21828        40.26284
68.79295        111.58772        48.73723
67.67380        113.88389        164.84576
67.04086        112.06896        177.14891
77.32009        120.25213        111.38340
69.29520        122.86035        69.74261
68.53375        123.28087        120.65612
69.56796        123.74865        156.88142
73.02791        127.67011        41.41079
71.12352        129.43029        47.11721
68.31829        127.11575        85.37640
71.48936        128.53716        99.32058
68.43531        132.38130        71.32678
71.34257        139.45428        58.17802
70.59899        146.76831        61.91651
82.39142        77.97029        59.24579
73.40699        78.44865        70.63387
75.02059        82.19810        44.04700
72.68987        84.59207        52.07547
72.41823        82.76238        172.29188
75.40109        91.81940        61.94718
72.79644        92.37914        156.11199
78.65986        89.95756        68.66865
72.92092        107.02892        47.08824
72.50756        107.16154        147.48526
72.39248        106.01408        170.02818
80.99662        114.66362        48.54143
72.80539        113.48764        65.43357
73.00577        112.73100        101.19035
72.96221        124.82670        76.73567
78.78199        115.89353        92.76677
72.64456        117.81925        102.18718
71.57740        117.79927        152.05860
72.29748        122.81845        112.43837
73.79475        122.77675        182.26690
72.28701        128.70121        66.97826
76.97347        126.60189        123.99454
71.68357        127.58478        146.10349
71.27010        128.49972        171.95404
72.87655        132.44788        54.52939
72.79767        134.53235        84.49154
72.52062        134.83993        91.99481
77.61045        137.29488        103.65424
73.41673        137.59760        168.94007
79.19910        72.27773        46.85297
77.82058        77.21843        156.22845
81.90076        89.46832        51.45271
78.25298        82.79512        151.76714
78.91339        92.31800        38.87476
77.85666        97.41030        50.33675
82.94682        105.19433        32.17190
78.12889        102.18824        60.65288
82.11907        103.18160        81.95436
77.21827        102.71130        153.12942
78.06609        108.57266        99.44343
83.29171        114.76327        27.07613
78.23698        117.82978        67.81758
80.35503        122.04425        100.22847
79.02930        119.11972        147.91154
78.53124        115.58880        156.87291
79.41345        139.10679        58.52729
80.22505        132.66466        67.37846
79.00182        132.90623        77.93105
79.21120        132.46644        106.94817
77.47582        131.95759        157.45155
77.88065        133.07354        176.12623
77.94417        135.50160        31.07183
78.71255        138.39968        72.15919
77.97908        144.01525        166.16760
82.96310        71.85119        155.13345
83.21706        78.38409        42.10282
83.51332        87.84706        151.60157
82.03513        97.26881        59.41960
85.44908        101.24623        112.75737
85.30504        102.07351        181.39787
83.88598        108.23993        54.65724
83.85574        108.44267        88.09612
83.18694        110.20851        147.32842
82.05600        112.78513        47.45120
83.19538        117.14890        112.21453
83.21301        116.62092        141.28592
87.82101        125.22934        27.42060
85.50339        123.10395        37.70979
86.16989        122.18282        52.20117
83.53557        122.78826        69.61035
83.25938        122.98724        160.46598
86.46946        126.25766        75.23527
83.21877        130.54153        89.76201
86.57435        130.42992        42.80970
83.38481        131.46121        53.73654
82.82453        138.48426        175.70868
88.18321        64.14420        164.58213
86.45058        72.65309        161.36729
87.57601        76.53173        151.48840
87.78416        83.69049        67.44369
89.26406        81.85987        76.66593
86.39132        81.19256        146.73570
86.62011        86.81622        177.62948
89.76983        93.66000        70.00991
88.06466        93.20500        146.29750
87.69364        97.48025        40.61691
88.05488        97.20383        102.82319
91.12091        104.65732        69.51490
88.99996        111.11447        121.67756
88.29599        121.04169        89.60844
88.19849        117.68596        102.49861
89.16314        117.82847        125.98035
87.61398        117.79191        154.91428
88.19847        117.65741        174.25755
88.83661        131.26642        115.20569
89.63495        126.07359        147.63634
92.32112        125.28220        103.07004
91.47023        127.52172        177.45404
87.84850        129.95559        183.02843
89.13694        135.98818        103.52064
87.70983        136.75153        150.90304
86.79860        146.89163        164.04750
90.02111        141.79529        179.73871
86.75904        147.49064        177.39718
98.56786        77.52793        71.87660
99.65104        85.71218        62.65973
100.15150        81.08993        88.72959
91.55925        81.01533        186.99535
102.05652        88.45491        52.81608
93.10272        87.85231        147.79717
92.99120        87.77309        167.10622
92.96856        87.21615        172.07593
94.12032        91.26564        178.34878
92.91292        93.13694        162.44837
92.94228        101.05843        79.94311
100.64716        101.47244        72.79594
95.45747        96.91859        99.70155
94.31762        97.21115        109.01202
95.27648        97.05390        154.08685
94.36888        103.17104        93.49407
93.61619        105.35142        110.19251
94.30875        103.48875        121.85313
96.34228        108.16782        147.92912
92.95172        105.14753        162.29144
92.29488        106.57887        60.69616
95.24463        107.07974        97.47111
92.88730        112.37583        44.41011
92.75122        113.53045        111.20591
94.58219        117.80975        26.42094
92.12618        120.75518        34.69339
92.56828        118.41510        44.58994
93.06846        117.29882        92.08232
92.62089        117.80851        97.05642
94.73146        122.26592        155.33080
93.94758        127.32703        172.08590
97.48909        140.71359        99.40995
98.20746        145.23841        119.35602
92.92744        146.23098        171.90015
98.63136        65.80851        86.15126
100.47546        88.08244        76.68575
97.93962        89.91359        109.15783
99.94598        98.64833        53.87210
98.27077        97.45958        63.62246
97.01162        98.76808        127.15746
99.28128        98.59761        134.91154
98.25930        97.43463        144.48216
98.30251        106.68737        92.53340
97.00702        106.98133        117.48562
102.55126        107.03249        168.41085
98.12943        114.41801        34.58692
100.39437        113.06223        106.84768
98.41588        112.32846        127.84909
101.70218        117.54464        93.61913
98.53011        117.21177        102.94833
102.28314        120.14568        174.77785
99.09146        129.70304        84.71554
98.42081        125.27942        181.92645
101.32451        127.28241        102.55520
107.56259        129.58111        119.77273
99.49658        127.20566        163.64708
96.38310        130.52187        27.57990
100.10033        132.83097        93.66360
101.12379        131.88952        126.84747
99.33234        138.47396        89.17262
98.97636        140.18006        127.26753
98.55081        137.69356        142.48812
97.42374        137.13296        172.44394
100.25686        143.64762        111.87171
98.14942        142.49680        156.07400
101.17881        145.85054        132.52606
98.36766        149.91566        155.84882
97.42724        146.52553        181.37217
100.41618        151.76591        164.05483
103.84985        66.27100        88.72009
101.34645        62.34417        96.84466
101.46131        63.15926        162.99484
103.00339        92.40544        90.60276
109.05412        88.20825        147.92714
101.96772        96.31647        165.39376
101.34835        92.53146        172.39911
102.91994        101.98249        95.43669
104.14198        97.27220        107.89767
102.66534        97.51071        177.13435
102.21468        97.55783        186.79922
104.08184        101.32420        118.45770
106.39490        103.92390        152.71017
104.86959        102.52662        176.29801
102.54942        103.54930        186.18402
102.76298        108.40345        134.66007
102.73966        111.98654        53.48483
102.64070        112.01534        112.11815
103.07498        112.37147        162.94407
108.05522        123.47593        147.82004
102.77702        117.70977        166.61344
104.95154        121.92825        142.32033
102.94678        124.69952        157.03377
105.29410        122.20405        186.33858
107.31399        123.65130        132.85587
109.01544        127.48286        170.59004
105.54381        144.25495        100.39102
102.41703        131.33755        144.56380
101.45954        141.19034        147.43845
107.56706        143.00208        88.90822
105.41346        147.45857        151.76889
108.99798        67.40744        177.49073
107.92325        80.14669        71.41828
109.79486        76.95359        111.81073
108.96638        76.95746        120.33255
107.87925        78.53093        131.78561
107.94392        85.46026        89.65130
108.06828        85.06887        97.21202
111.28836        86.15814        125.60075
108.58652        95.87381        72.11495
107.93740        98.55850        56.34797
106.92943        98.67805        127.44954
106.65137        102.75516        107.22013
108.33784        101.46301        137.01332
109.77743        107.41683        62.06523
108.31679        112.72451        55.23138
111.71753        116.61409        100.83528
108.93619        112.68433        138.29731
111.42394        114.52938        154.63633
108.13343        109.93560        172.07817
113.81000        117.28216        119.27042
109.75419        116.49808        127.25609
107.58589        117.78707        162.44516
118.08089        136.99174        89.04772
107.48967        127.78124        71.44321
113.02061        127.21120        112.73026
107.78630        133.55085        112.41724
109.51817        136.68369        183.96105
111.27677        140.84725        125.60807
107.21794        143.55851        134.26369
110.29288        146.77727        108.20633
110.44509        147.59104        120.49009
107.95387        151.69850        156.96592
113.22209        144.02743        182.03102
109.55143        150.82659        165.32491
116.11504        62.90832        103.05773
113.26709        77.06308        89.69972
113.03495        72.29832        111.95465
113.22949        73.05266        123.38268
112.94348        81.03737        67.57663
117.33094        90.62004        92.85259
113.42569        83.97796        157.02232
116.12540        82.97532        164.20929
113.22913        91.96497        169.73293
113.23296        87.48449        107.28231
115.24400        87.87549        112.17448
113.34631        91.94824        67.32969
114.11918        96.17268        117.73053
113.30770        98.39169        58.67626
123.34808        98.61389        96.45999
115.40424        97.37598        151.33309
111.22841        104.90751        68.24921
113.26858        112.15185        142.67387
115.25423        115.00426        166.36695
113.07155        111.97916        177.48585
114.56177        116.12626        66.06442
113.20303        117.44343        132.70322
116.01291        121.59876        174.92609
113.89850        126.01400        98.61262
114.99958        127.99983        132.61541
116.04501        126.88049        157.10314
113.34214        137.80497        148.17394
115.35732        146.87602        97.66163
118.38161        139.35383        118.34841
112.06746        145.22692        147.36976
113.17275        146.14497        156.14236
113.62518        152.50574        106.89891
119.22886        61.69985        152.24702
119.12814        62.16249        170.81239
120.19772        71.43153        96.81843
118.72654        67.90209        106.57278
120.23824        66.00361        117.97065
118.71220        69.19588        179.15256
118.43670        72.44622        112.63652
119.32575        72.89590        123.52622
116.19215        72.52353        146.32162
118.47544        73.10178        155.71195
119.96593        81.12728        118.60241
118.55544        75.81385        142.37345
119.07157        85.84611        80.12483
120.93615        81.87938        91.79908
121.11009        81.96187        174.25100
120.37757        90.28940        131.59151
118.77066        87.31874        144.53257
118.84982        87.59882        177.53343
123.56778        92.20782        164.35072
117.46052        96.08907        127.15448
121.73909        101.52844        138.57193
120.28852        100.49438        171.85627
118.42175        95.90722        177.12657
120.50483        103.99129        147.40372
121.04501        102.77755        162.75531
120.89315        107.71378        56.02276
120.37494        111.82592        66.18356
119.16361        112.07349        140.84171
116.25493        112.48970        147.54910
117.51663        111.08312        172.39337
118.80745        124.20923        116.77007
117.36333        121.67704        142.70678
118.73923        125.34665        149.53942
128.90289        128.15122        64.10592
120.58589        128.87335        71.20852
129.39167        129.76099        93.19451
117.45981        132.76022        102.28614
117.26922        135.71094        185.94988
117.38746        152.66167        161.24585
116.42611        154.19654        170.07293
125.79466        64.53556        96.50707
122.80357        71.56119        91.87097
126.41507        67.65216        130.33708
123.43398        72.31144        86.68187
130.06826        71.32367        110.68439
124.36690        74.73676        147.79421
123.08030        79.19779        100.89610
122.96756        78.17449        141.84841
122.36164        83.74980        70.28404
123.14450        80.88948        86.67685
122.88250        82.27905        111.00216
125.66209        82.23851        127.27598
122.46677        87.01938        184.91829
125.25413        88.23008        119.50761
126.10388        87.53503        153.78914
121.74140        90.72476        137.22030
123.29521        91.79414        144.36843
123.10936        90.70201        176.36194
125.78566        97.57100        55.43520
123.32197        100.41790        63.59150
125.89765        102.64107        112.17965
125.69920        106.19905        186.05998
121.59572        107.08477        71.25147
121.79352        110.27848        132.55736
124.69238        111.31111        160.33246
124.09059        107.10588        176.77023
127.61517        110.43534        78.62172
127.29325        114.72083        97.15196
123.19830        112.25398        109.69272
124.10089        113.21924        119.72701
125.82719        114.34955        175.25845
123.15254        118.11851        53.86788
128.14966        120.03773        76.86697
125.22100        119.33259        107.97032
121.79040        115.25277        127.50749
122.96244        119.27918        147.57501
123.31666        122.72386        60.61457
123.82566        126.44786        91.62349
122.74533        132.83683        147.35789
122.02841        136.58890        180.71268
123.41255        142.08854        96.88729
123.07728        145.29658        152.20300
127.33939        58.19331        170.78520
128.30493        61.57407        158.52287
127.11811        64.86704        176.92486
129.31667        66.85604        118.92346
129.46432        72.71580        126.93138
128.35854        80.41817        101.47046
129.86966        82.32804        92.28216
128.89568        82.55357        112.32463
128.61880        82.88904        162.35348
128.18351        81.53453        179.27206
131.13911        89.10207        85.16494
128.14638        88.08914        97.29606
127.19570        87.05448        104.16891
128.22387        90.47924        173.32808
130.48331        89.16288        182.75098
126.95319        97.29418        147.44398
128.63599        100.68440        172.12420
128.58610        103.00310        106.85208
132.59609        108.13079        150.04430
126.93728        102.87074        167.03748
128.23492        110.17303        53.22144
130.72549        108.43600        68.18214
134.55197        108.30678        98.00471
133.07689        108.89107        119.60324
128.66516        114.46950        142.43471
128.13608        112.08275        185.86900
128.67832        117.53393        65.08204
128.71964        115.08959        137.15785
128.05480        117.38164        149.02430
128.71285        122.98187        48.65899
129.54908        127.29081        147.56601
128.41601        131.40901        185.20838
128.28778        136.84113        149.79643
127.96206        145.67238        153.38248
126.10887        146.43656        182.91893
133.43461        74.84116        92.21000
133.38584        74.83339        98.36041
132.31383        73.84738        152.25723
132.35713        77.22667        86.75177
131.26451        77.15481        122.00044
134.31438        81.00676        172.44881
132.18860        82.42993        82.64764
133.76579        82.22115        108.40528
132.56494        82.24476        147.55368
133.43313        82.10007        167.01897
139.19042        81.17287        181.04348
135.99009        87.73898        97.47062
136.04472        91.64546        105.69667
134.71388        99.18911        49.75397
131.08769        97.57565        102.98468
133.59613        95.79288        142.14505
135.00659        102.63308        57.02667
133.73012        104.84273        62.20915
133.86213        102.40518        108.41625
134.88141        103.03276        157.22836
131.37913        102.57844        177.16451
133.94755        108.39308        112.30054
135.37627        106.28919        164.70023
134.03461        107.18706        176.24826
133.61241        112.37398        52.66024
132.38272        113.39974        128.59139
133.75056        114.34283        178.76263
133.95318        117.71721        62.18723
136.25440        111.89848        84.01857
135.20532        119.37183        101.79974
134.11038        117.79013        109.98074
131.92196        123.95374        112.17152
135.83384        122.07692        169.81295
133.43560        126.07204        52.44754
133.82354        127.21183        182.05222
135.94221        130.55769        74.66908
133.52415        129.39077        151.56759
136.04039        137.17813        61.91898
131.08231        143.37758        157.24586
133.77393        139.95055        182.10470
137.95961        68.76951        177.35844
141.96603        82.75146        106.76038
138.19808        89.63014        172.62354
140.23579        87.69052        182.39911
138.65687        98.07989        90.00173
139.44758        97.29262        100.43427
140.03345        97.33011        124.46284
138.39377        105.99216        31.99722
137.65455        101.24509        112.40330
139.71464        104.15886        122.90320
138.27790        110.25637        77.05964
137.78884        107.00571        108.35097
137.89386        111.95749        106.99836
135.80660        111.05052        172.66517
137.98033        112.89001        184.31195
135.81273        118.13083        56.75025
141.68162        115.98290        118.22166
135.82260        122.87428        62.13599
137.93336        119.83129        71.62162
136.60286        122.91773        177.66139
139.66051        143.42956        158.78459
143.76510        62.53124        162.54077
144.95595        67.90704        156.54877
144.83227        67.47218        171.47312
141.24372        82.01658        145.43601
142.87214        82.11193        177.46556
143.86231        88.08456        71.62690
148.07241        89.81821        41.91935
143.08947        91.20352        93.97644
142.99841        90.66549        146.37420
143.11464        92.24938        187.07031
148.46942        96.33438        35.12942
143.69254        97.52630        43.10120
141.97633        97.83848        147.20511
143.18789        104.70537        41.93044
148.98211        102.08302        92.59512
143.23795        102.81557        100.38451
142.59382        100.53472        182.80122
142.04867        108.08994        61.28603
141.60102        108.68992        69.54532
142.84969        108.23615        181.87767
143.94040        112.30500        38.47663
143.31604        112.29908        102.90841
144.34879        111.89838        150.61366
143.31354        118.83928        67.71148
142.89058        117.18384        106.52281
143.52684        123.42699        47.55966
141.82365        123.07342        186.11631
149.88235        127.93236        54.04425
143.53230        128.41975        67.35958
141.80950        127.27823        156.23998
146.99713        138.89529        60.93278
147.71299        72.56068        177.46655
151.69486        78.23544        103.62098
150.16903        82.63450        106.91022
153.71284        86.71479        124.00028
150.79146        92.01230        50.57545
148.05606        89.68297        88.35823
149.86195        89.94162        110.69789
154.48525        94.15547        26.93096
150.87697        95.63952        67.87092
151.77521        90.11173        77.57198
155.32628        88.78663        99.47446
146.31695        92.44769        151.68191
148.24472        97.56789        22.65251
149.58581        99.94265        110.70428
148.52688        102.60530        22.92929
146.11754        110.20839        112.30061
148.28359        105.81828        156.21836
147.53093        108.48863        185.72708
150.93306        114.36152        32.15466
150.82384        114.36464        43.46821
156.07067        92.86467        60.55857
148.27610        114.37669        84.53955
146.20094        112.13710        107.07924
152.04058        124.91528        38.36260
150.11756        125.84295        61.87945
151.41084        125.63811        69.57090
150.49744        132.11687        155.98625
151.79704        138.75537        72.11046
148.52883        136.52312        178.03661
147.23982        146.44806        162.22736
155.85023        79.98350        56.72037
153.99600        77.07575        153.09894
153.16401        75.92328        164.03442
153.30057        82.68989        76.91277
155.31755        86.12811        117.51105
155.35648        101.71244        101.81345
153.05184        97.00034        115.23480
154.55211        98.12410        151.52361
154.87065        105.81928        28.12650
155.89121        103.91221        45.01847
151.56923        100.42103        182.15656
152.97582        107.00174        41.58690
153.05226        108.33689        148.16965
154.14806        112.67859        180.77352
152.71819        116.38438        61.52973
156.43608        118.84545        153.09398
151.76343        131.36649        176.35975
153.95432        136.50952        46.89524
153.02800        137.21012        165.70040
153.53773        146.41058        52.67684
167.16216        76.85581        72.51684
159.29517        81.53135        83.21949
158.62235        82.12193        92.16515
158.40050        81.99241        157.07828
158.56437        87.63440        40.42242
158.04715        93.24594        77.37311
158.00595        90.60765        112.13387
157.87664        87.55746        151.94071
159.69144        87.26709        161.42491
158.41167        93.39505        38.60897
156.99305        90.85565        155.69545
159.36182        98.29019        113.29502
162.04953        95.84168        167.67893
158.86876        98.77656        177.76400
158.80932        104.55901        65.94655
164.89962        115.93486        40.10471
158.99807        113.08343        47.21306
159.71854        115.97049        62.25356
162.14518        128.62179        44.38739
158.49598        122.23728        54.05571
159.59066        124.04844        61.90510
157.73961        127.07018        159.55728
158.56747        130.41706        74.36932
158.43051        132.72081        82.28275
157.67844        131.31103        170.08466
158.18317        137.68037        64.77094
158.28792        147.68522        61.54159
166.23953        84.64373        52.15016
169.98053        91.50086        74.81306
163.72767        91.91995        86.20926
165.93381        94.70171        116.73001
168.34827        102.12423        36.07813
163.54310        97.59720        107.02131
163.65807        102.52023        31.66209
165.90011        102.04392        46.92395
164.32470        104.53231        72.66461
163.46693        107.90318        107.28899
164.76651        109.28209        51.37514
163.94191        111.97815        25.68686
164.01124        111.03328        162.59594
164.07609        123.19909        56.08166
165.84141        127.09171        69.05912
167.52831        137.15152        53.91352
163.56677        137.50143        62.31596
168.97495        136.67997        70.58848
166.81127        144.79932        65.66613
168.19644        84.00981        37.37984
172.25741        82.74273        69.48452
166.00245        87.79299        62.08502
167.95022        95.49071        62.72425
167.84140        98.40870        83.03194
173.48771        81.93560        62.17849
175.43160        93.71751        62.16324
173.26141        103.89778        49.26472
173.35618        104.40671        77.57974
172.04292        110.97943        52.05832
174.72299        124.83849        60.74579
172.01092        127.07286        52.31110
179.16941        82.51585        65.18966
178.61798        92.14963        68.84176
