54.92427        154.36344        141.76099
51.21243        139.37008        145.57568
51.75584        142.13266        164.57562
52.02322        164.52655        144.69515
57.02406        139.34518        167.99555
56.15124        140.26718        175.03478
52.96169        147.74811        162.73163
64.24917        152.92892        164.92288
66.29968        164.00476        134.02721
58.10560        131.97452        174.58149
57.94608        136.77923        143.02184
60.88184        132.67753        152.98790
58.05241        132.53232        165.44720
65.91189        136.42796        184.97533
57.91714        140.25537        155.34929
57.92938        140.18846        162.85124
57.72911        142.73518        148.10771
82.54283        145.22385        198.91172
57.73438        148.18462        148.09767
57.94204        153.50057        154.55224
76.56594        155.24445        184.42507
57.79385        155.36555        147.99242
68.94289        162.04223        159.46734
63.35810        180.55322        118.19782
66.92463        195.01259        132.43851
63.07723        131.63790        162.84393
63.13855        130.56510        167.94374
63.12479        136.66530        174.97434
63.05901        140.24859        155.45125
63.12985        137.62814        162.77444
63.04529        137.64171        168.02734
63.12784        142.72720        162.81500
63.08423        142.67940        167.97794
62.86125        148.13228        142.67929
67.80899        148.18231        148.32917
63.07846        155.16123        155.33549
63.22887        147.93039        167.84688
70.90502        147.02235        187.82196
63.00032        155.38361        137.62659
63.03697        157.82773        142.88662
63.07602        157.77286        148.00145
63.13847        162.65523        137.63521
63.20572        169.20850        143.90435
69.45221        177.70260        146.90611
70.40311        192.07712        120.99359
70.35542        134.19136        157.66086
70.29672        133.27064        168.03237
70.34422        133.39272        175.32096
69.97623        142.37977        151.06040
70.30101        142.76064        162.89974
70.38410        142.87366        168.00049
70.35067        142.87525        175.29891
70.32107        147.96112        167.99157
70.33084        157.83958        145.48656
72.77805        175.09172        114.29485
70.71857        185.62791        133.19685
72.24716        204.84587        130.14484
81.81753        131.91792        173.76443
77.73306        130.97046        182.80215
77.72331        134.94686        190.81368
77.57885        135.67444        155.62948
77.64047        135.60114        162.72176
77.58600        137.88905        148.45582
77.61140        140.20048        167.94660
77.56717        137.53832        175.37549
77.52489        137.46193        182.82298
77.67126        144.87192        154.93458
77.50594        142.83743        162.79025
77.63512        142.99596        175.29553
77.89418        142.83425        195.14780
77.67509        142.48132        202.18324
77.64874        156.92266        151.66564
77.69311        148.11891        162.57761
77.62305        148.09845        167.99892
77.82978        147.88864        195.08769
78.06893        148.33749        202.14974
86.31547        158.92804        128.13646
77.65876        166.81006        130.32532
77.65247        155.74040        137.42261
77.71687        155.32327        165.50253
77.66918        155.18411        175.27655
80.82652        153.84020        182.65282
86.50326        153.83087        187.85270
77.69129        162.79118        137.74480
77.66837        166.44857        142.76845
77.74096        162.82033        148.00827
77.76749        164.02051        164.92431
77.88648        162.38278        175.27254
77.66231        168.03589        137.63089
77.75043        167.96332        147.96501
77.80835        167.72414        152.96378
77.48917        175.45161        122.83987
77.74090        177.55287        149.65468
85.25987        177.51872        142.76163
77.53616        182.51206        116.87484
77.72780        182.65718        122.86279
77.71488        185.89167        131.76813
77.83111        182.73357        137.48566
77.62439        187.94508        120.86091
97.57410        196.84456        154.87246
77.74008        195.25504        121.01497
77.73881        195.92380        138.04506
80.64653        204.96682        142.58320
80.99295        213.77295        132.60503
84.72287        131.18018        182.76533
88.90184        146.70373        152.04623
82.94459        140.88570        148.38758
82.80920        137.61540        167.82738
82.81137        137.37109        182.69031
82.95267        145.35439        155.46696
83.14798        142.95876        162.72275
82.95090        142.83865        168.03711
82.92565        145.52354        175.39027
82.83665        142.99759        182.60194
82.81856        142.91219        188.06271
82.98833        145.41225        197.42206
83.01259        148.12032        165.32930
82.99960        148.16304        187.94408
82.81168        155.68427        137.49925
83.01298        162.49796        155.89201
99.82027        162.70833        169.64011
90.43401        161.15347        175.22085
82.99872        162.89633        137.81171
82.83997        165.18845        142.86845
82.95276        176.56688        131.93942
91.94196        167.94487        214.41808
82.68495        175.40437        122.98571
83.00552        176.87311        151.23850
104.90211        183.87783        134.59706
82.80042        195.30903        121.01420
82.98797        195.35716        130.28411
83.06696        204.65250        129.19679
83.03082        207.63297        137.62712
91.09143        214.93534        135.77511
89.56891        135.13166        167.99241
90.18401        137.77457        175.22235
90.23668        142.97129        167.95226
90.28389        145.54649        175.35624
90.26907        142.98569        182.70092
90.30337        148.09307        167.89938
90.34673        152.85548        182.65903
90.25172        163.05741        137.65100
90.22517        162.92039        142.74522
90.31522        164.18067        182.68966
90.26420        162.48206        187.80622
90.38391        162.88132        202.72628
89.71582        167.97545        129.60611
97.65263        164.97322        139.84229
92.89635        168.01303        202.79505
92.82507        168.05124        207.88197
92.48924        176.47706        133.06944
93.36715        175.24323        205.92766
103.89083        170.84090        213.03244
90.38614        182.76426        142.91048
92.98340        194.29965        126.84827
92.44501        194.01276        140.07576
90.98865        205.06241        128.95213
92.69288        207.89253        137.47567
90.08477        211.79541        148.01766
90.42691        223.09706        137.53735
96.58604        220.55352        148.54908
96.84462        167.87489        187.84273
99.23320        178.75350        194.23994
96.94110        194.32157        173.28165
96.34052        215.26067        163.11843
96.74380        222.30348        167.67999
99.71780        92.40918        161.26318
114.96344        120.53536        168.38963
97.60135        144.11817        182.70056
102.79392        144.58633        194.10573
97.43977        145.73115        168.04552
98.80796        145.63797        175.39325
117.38631        185.74377        174.68280
97.69910        148.10321        187.91255
97.62751        155.31641        182.78913
97.66355        155.30944        187.93980
97.70324        155.35892        195.23494
97.25586        161.41889        133.16698
97.60294        162.61783        148.17557
97.72468        162.73331        155.40155
97.74569        162.63112        182.75052
97.72589        162.68008        187.91507
97.56603        162.71471        197.74855
97.68810        168.02737        155.40765
100.38896        170.47567        182.74514
97.92106        167.92202        195.52077
97.66441        175.14362        142.83443
106.86926        176.17022        156.97719
97.63992        182.87355        132.65724
97.66257        183.00783        137.76421
97.58765        186.26371        141.02154
100.46915        185.28628        202.61649
99.53203        183.50471        207.77680
109.73323        190.65920        172.92650
97.98562        202.49357        127.84730
97.64700        202.47484        137.63219
97.63503        215.21010        132.73865
105.95600        213.87472        142.80742
97.69679        222.33769        162.60777
112.65383        142.68388        165.11100
103.07365        143.22778        166.56837
103.65885        146.19714        182.91682
102.77578        153.51832        162.72625
102.48740        148.44145        167.88361
111.60704        166.14038        190.85345
102.77229        155.45705        167.98659
102.85666        155.37047        182.57549
102.91419        165.49134        145.45230
108.75632        159.63846        163.93239
102.89783        162.63356        167.79820
102.87883        162.67680        185.24298
102.87878        162.78815        195.37524
102.84391        174.64970        134.82237
102.86417        168.03487        137.93634
103.09377        167.99002        187.97133
102.78871        168.19335        205.26334
102.83545        175.34853        142.78501
102.73925        175.38691        148.07272
102.80856        175.04340        188.11459
102.80776        175.32461        205.41652
102.86050        187.91636        140.05392
102.87564        187.83397        148.17543
102.85115        196.70027        139.60181
109.70363        194.46487        148.05006
102.70567        202.41681        131.49559
105.18586        202.36236        142.81307
106.02343        213.22256        133.40843
102.85722        208.19328        137.39620
102.81490        207.83153        142.89125
102.69490        207.92180        148.03699
103.24880        212.85748        167.61551
110.56373        110.42080        168.02087
107.99844        123.00812        153.32292
107.70542        127.71975        142.57265
111.80739        135.78790        140.89177
110.14450        155.53313        182.58679
109.96438        165.28415        143.35323
110.12748        162.60993        175.37030
110.25840        165.38623        182.83971
109.94213        167.84740        165.53168
109.32275        168.15019        202.65093
112.94401        175.44351        195.53733
109.39519        176.11144        202.63021
110.49456        182.65025        175.25447
109.98134        182.67717        202.57192
109.48425        182.65372        207.70277
110.13478        187.97479        202.50979
110.44091        194.58000        140.29307
110.16475        193.05440        182.83450
109.38448        202.52691        134.91230
107.90932        208.15776        148.13875
113.14347        105.64400        182.61406
116.31733        109.83415        130.60719
120.20482        139.58165        126.01638
112.51830        144.11017        121.37822
113.30894        144.92666        130.65623
112.76177        142.88992        148.24329
115.71212        146.64400        154.24455
112.09297        187.69661        182.77335
129.15860        108.44359        142.30685
123.09814        105.94921        154.32745
127.19328        110.79707        168.94705
128.35281        111.53431        120.34067
134.48493        119.68000        126.99259
117.64612        148.00829        167.99121
119.72931        162.72263        141.76293
121.23345        162.87311        173.57378
117.70958        162.79541        182.85638
117.43903        167.90981        140.31238
117.61145        172.15903        174.75584
117.58053        168.12122        182.75261
117.73628        175.30441        187.93896
117.64002        177.64977        167.77200
117.58828        182.73905        175.28310
117.60551        182.62470        187.88469
118.41086        222.32338        181.23275
125.76679        119.61191        148.15255
122.78082        126.01075        165.50025
122.77487        139.06674        167.19714
122.69587        149.59299        167.91609
121.88040        160.25401        162.73355
122.46881        157.45253        168.34791
127.02376        172.88722        141.61651
127.27528        175.81245        118.86849
123.04473        183.92609        115.90657
125.20647        187.87715        168.08841
125.45133        190.25295        176.11795
123.47577        206.04604        156.72616
125.37002        205.79813        162.72987
124.50636        206.42121        169.08445
126.68071        102.07428        122.99824
130.15371        110.26606        148.98851
128.83010        121.56859        154.34654
131.10748        120.13383        168.21774
127.95821        142.80098        137.27448
129.38165        148.11470        137.47688
127.97378        149.59662        163.72337
130.59693        153.79590        139.99245
130.23707        162.74426        142.07898
130.97689        181.33616        128.40926
128.04535        178.36459        160.76615
131.20794        188.84752        118.45271
132.38909        191.78769        128.78800
132.36320        115.79300        111.96189
132.35965        132.54799        187.58255
137.05125        144.65062        142.82598
143.88682        150.84130        166.39590
132.74344        147.87105        167.64589
139.28845        157.13673        118.85204
138.23251        101.47533        134.28122
137.45653        117.46336        142.76369
168.21618        141.73900        162.92992
146.07036        130.72813        109.14071
138.57967        124.05685        143.01180
137.81598        122.80306        162.91986
139.03398        129.82964        117.48599
137.33480        137.67517        138.87810
137.62072        144.29874        155.31971
141.66269        139.35745        162.60684
139.64570        146.27318        137.55354
137.64981        145.00688        170.21143
142.51260        162.78175        139.61220
137.15341        192.76895        135.45487
164.79971        90.13532        133.04819
142.68612        101.42976        149.35379
143.44431        108.89696        131.34880
142.56383        112.50877        148.34119
149.34045        122.91157        165.75986
147.06353        130.20693        162.64801
156.94717        130.22135        171.75697
145.28232        137.57603        147.65009
144.29158        145.00924        146.13013
150.65521        162.79993        128.13708
142.81980        167.86818        130.38227
169.05132        85.66714        108.69800
148.54278        97.86492        122.98907
154.65601        102.90967        111.45184
152.66758        129.52546        123.89408
184.64146        130.22071        100.24236
148.55973        148.71880        122.74185
152.49321        151.88955        147.08755
148.08218        153.10327        127.70536
165.15920        154.93209        128.09014
156.73487        90.73030        102.34634
165.68070        83.43671        167.51307
156.10904        109.48405        99.01941
156.66525        113.11119        110.32524
167.65717        110.87485        158.90304
157.86383        117.70165        161.01265
155.37842        122.86882        160.85404
159.27276        128.81679        182.62583
154.59591        137.31751        168.76386
155.72175        141.90810        128.50100
156.38290        155.26831        120.33436
157.84786        155.31920        142.71077
161.43019        83.01956        168.04878
171.63902        88.51977        180.02929
201.48460        114.06610        167.73900
169.14606        125.76061        217.64206
157.45066        117.52831        100.34383
161.65870        117.57824        119.07014
157.74802        122.80797        103.96795
161.07863        122.85023        116.85185
160.90439        129.60660        187.89344
162.62864        130.50719        195.56658
163.84806        130.28203        202.71295
165.03549        130.93326        207.87586
161.10445        146.26270        137.47366
161.92109        142.84787        148.25891
161.40864        147.98790        122.76586
157.48807        162.47362        142.65788
163.90284        163.61620        147.66896
167.37626        78.69368        163.02780
167.23182        74.72401        156.84175
166.87195        98.72036        120.27621
162.56572        100.20560        122.80880
162.56430        97.48044        163.01823
162.67554        109.98380        167.88088
163.39682        122.86739        100.27287
162.64372        130.13475        107.86100
165.54250        132.43109        140.19372
162.78185        137.48929        102.61377
163.79394        137.62732        122.90426
165.56945        143.99007        130.03056
162.57152        142.66849        103.04420
162.89807        142.61411        117.84587
162.85103        142.83691        122.91617
165.47005        145.65875        142.76751
165.51916        142.80716        165.21070
165.40925        148.04382        147.99348
162.65581        153.44124        102.86986
164.52330        155.28639        148.02073
162.97722        162.84406        162.81549
168.15262        83.18469        182.42479
174.89638        82.00328        158.60470
183.55887        101.79387        124.63397
167.66824        97.49275        128.01099
171.89560        110.01622        130.71198
168.16305        102.74505        137.43680
168.48839        117.70784        122.59664
167.81955        117.68014        167.93712
172.10344        123.50941        208.02219
171.72009        123.44591        202.74572
167.94112        137.33205        162.90236
168.09943        137.34821        167.90826
170.25904        145.45120        103.00204
172.34041        145.82944        140.18948
167.87744        142.92232        148.05817
167.84229        155.21495        137.54810
167.74107        154.58209        142.77300
170.08334        162.47732        122.62799
175.14563        58.34077        158.78972
173.19510        69.80837        147.91942
176.07368        91.33877        173.03493
175.06884        100.30272        173.33109
175.49239        106.22371        140.12742
176.98782        103.06175        182.68077
172.95569        110.77395        122.78812
176.60748        119.15137        182.63010
172.93581        128.19965        127.65679
175.49380        137.48722        162.78531
175.16009        142.70178        148.29748
175.08209        147.89174        148.18485
175.06801        155.35483        139.92477
175.75313        162.56408        130.35470
175.39487        167.99956        148.10855
177.95175        63.41453        123.18048
179.99281        63.00624        145.83059
194.90641        66.94362        154.55755
184.55125        103.84149        147.87323
181.67246        109.70062        148.66579
180.61450        121.62621        82.97405
185.90955        125.20105        193.97476
177.47418        126.57660        103.35131
197.29590        160.69687        154.20360
191.72037        173.36674        139.61589
183.15234        162.87247        142.76960
177.87576        167.95946        142.57863
184.16102        62.74015        118.07613
182.78206        70.29160        131.32236
182.72355        79.00246        167.60807
182.45337        82.87769        148.09140
183.34460        91.47406        111.55284
182.37524        88.19208        117.63184
184.96741        90.71685        128.33649
185.76036        89.56187        153.18206
185.50313        101.06023        140.07745
182.70132        90.88460        142.51318
182.73834        97.43425        108.01261
182.66939        97.31855        128.01610
182.63131        100.24991        172.95950
184.90309        108.35939        113.20418
185.38508        102.94700        167.64081
182.39694        110.05028        103.02477
182.72918        110.81822        161.36153
186.58488        122.09339        116.36190
186.12416        119.53887        160.50799
187.25907        119.29322        181.95367
182.99323        124.95335        103.17274
182.85263        122.92532        168.23393
182.68683        122.60587        182.59818
182.90996        129.72322        109.14942
182.58331        146.35273        119.09651
182.74403        137.66742        146.83679
182.74058        137.51201        168.28541
182.99284        142.41315        88.25435
182.79661        142.56436        168.26653
184.75979        153.34532        89.98609
187.54444        154.35051        137.73111
187.77957        153.37767        142.90094
187.19693        154.68098        148.08280
187.83895        58.79961        142.81531
187.91337        74.17645        136.60847
187.91754        76.08917        145.02941
187.96926        74.80369        155.37987
189.85439        86.05950        116.12524
210.95862        87.89776        137.15573
192.11980        100.05329        111.61621
187.77898        97.59014        120.11181
188.08202        97.55804        128.17615
188.37519        97.74365        184.55684
187.95053        102.97443        173.38061
188.03588        114.93843        153.13575
192.04604        119.94874        169.34306
191.27029        129.70440        130.62364
192.26657        138.00056        168.70130
192.27784        149.50677        120.40509
189.32725        142.59360        172.99083
187.69513        148.57188        167.62642
187.85913        148.29826        176.98796
187.97649        162.75327        148.14922
196.43200        42.71706        127.12479
212.02192        51.30762        132.92350
193.32745        83.47013        108.37392
193.06813        86.12970        122.91179
200.98890        90.94720        117.44234
193.17221        87.71399        148.29375
202.15025        100.16694        101.55534
191.87474        97.17092        131.90074
195.39779        115.79455        148.06878
192.92184        137.13342        97.41509
195.53829        140.63477        122.97140
192.91025        146.17045        177.48293
195.39741        158.02897        139.04678
198.97352        153.97863        147.96998
214.00398        52.82001        113.98864
197.77119        77.72503        117.39144
200.47506        97.99013        130.73502
197.59325        122.51393        122.85434
196.15478        121.67060        177.00347
197.67538        127.87114        148.23097
213.93033        172.98790        135.02523
197.85326        182.31021        133.70772
206.27759        191.92112        132.72880
205.99534        43.11582        115.74181
202.73654        55.15361        122.79087
202.48502        57.69168        148.36784
203.18022        70.20108        133.41060
202.44222        83.00246        162.48775
203.88806        82.63960        178.45670
203.81925        100.15620        155.77542
202.50457        96.25536        162.71689
204.66479        107.91253        144.54245
202.42192        97.68356        148.16214
202.73869        102.68859        162.86754
203.60834        113.41291        118.21429
210.60098        120.74277        125.71061
202.57762        117.27100        167.75673
212.71854        137.31955        118.52595
202.35080        137.74115        122.35551
202.60973        142.61717        155.37655
202.66057        155.90306        139.28679
202.35568        147.67033        165.26250
203.12797        148.29404        172.73936
202.65926        162.58321        142.79399
202.44769        167.98114        142.67389
202.84035        182.55483        135.09934
207.21198        187.86794        138.30425
202.83049        193.63022        132.23789
208.60153        57.08920        163.08951
207.96147        57.60607        122.81118
211.58858        60.10501        131.01071
208.11339        72.65271        142.47420
207.79609        96.56023        97.66950
208.10040        97.57266        148.41176
212.62048        99.01833        157.12645
207.96477        100.33131        167.98795
207.82787        102.88341        162.66994
207.96576        112.60396        112.41329
207.59157        117.41377        102.95856
207.65483        117.83694        148.23546
207.91598        122.67300        122.72265
209.93396        129.04118        137.61879
208.02587        128.85458        173.85754
208.12646        132.52570        82.97877
213.99204        147.99739        102.79197
207.99942        147.95758        158.00983
207.95549        173.56019        134.55392
207.91595        168.18262        142.69307
207.85487        176.32981        143.68309
208.05944        182.71240        133.18034
214.65060        45.00969        116.80348
215.96674        58.75679        120.16972
215.12258        142.44137        109.95486
215.28105        145.50797        97.56198
215.60341        154.49279        107.58512
219.82195        165.00407        145.49899
215.35949        173.07564        144.28088
215.30785        187.84597        138.89675
218.50393        122.83440        143.26541
222.65080        63.26410        127.93248
222.34011        102.70445        149.30094
222.82863        117.70207        113.87074
223.08512        116.58043        155.79219
223.97998        117.51234        101.48822
227.28633        117.48103        140.99365
222.62390        122.77002        100.94592
232.65646        135.40153        108.86428
223.86609        122.99701        133.80444
224.53785        123.12319        155.49811
226.80241        129.49326        136.63809
225.06528        137.62631        97.71298
224.25481        141.01993        102.97495
225.09464        142.65463        97.01632
223.40010        151.84954        104.66290
222.43657        148.01993        110.01403
222.30205        162.06920        136.79993
222.52386        168.05643        136.13623
222.58206        176.08072        130.29164
222.56034        174.91991        140.59952
222.53278        182.63255        139.50544
222.61779        187.90892        139.01385
228.08075        61.29649        130.23437
227.65643        57.51988        137.44444
228.06503        110.52088        103.84529
227.84116        117.71545        110.16925
229.18635        122.75392        141.53872
227.78952        137.55748        102.97880
227.68869        147.84823        107.66110
227.79965        166.08664        138.09891
233.78099        174.64996        130.49809
227.79666        174.95840        140.76453
227.85492        182.58649        139.97884
236.64475        177.03585        140.08352
227.69862        187.83469        139.44109
235.23355        127.08363        149.33745
233.08884        122.99019        148.10254
233.98149        184.89481        131.59677
