64.02220        112.96146        180.07373
72.90047        128.19041        173.68267
61.79930        136.38282        172.46617
71.22014        143.26756        172.49748
66.70416        122.83609        185.22855
70.53325        135.86686        169.55464
76.33241        152.87800        174.14304
74.61401        164.31759        154.23707
66.02863        163.89052        150.93129
67.75718        121.34495        172.00232
70.86154        150.39070        170.63527
79.89113        173.37510        143.16973
77.49715        180.47037        141.47491
80.33359        178.21534        150.39262
81.43338        106.25082        156.02171
81.08555        108.85170        126.44212
80.57372        107.89544        170.28466
81.12896        113.86536        136.74683
82.11084        113.63304        163.78576
82.61885        115.50891        128.18476
89.25382        119.91850        119.14597
81.77537        120.93056        126.14887
83.06395        123.98251        153.86828
89.22841        129.82468        125.93949
85.29165        137.08324        128.89101
83.05882        136.30753        165.56138
81.40770        135.67090        180.20753
85.58621        139.90880        170.74569
83.08760        150.46793        171.05148
85.38153        164.23358        163.46926
80.39224        155.65656        170.72720
80.55709        163.33439        155.81859
80.66582        176.60609        157.26209
84.10466        185.43089        144.09743
82.82965        190.75373        143.74203
90.16077        196.57871        140.99625
93.40676        107.41405        139.88638
85.02428        103.27237        170.64938
92.56801        104.63312        162.31723
92.82768        110.94668        151.79811
86.00438        119.39340        140.74437
84.65367        120.97234        170.53951
86.53196        142.55899        185.05873
97.61259        158.80981        167.22898
89.26442        161.24084        149.74147
86.78188        170.04198        144.26949
85.62222        165.01447        155.96674
85.61232        175.63484        155.70357
87.32080        180.85416        150.47779
85.57168        193.53710        149.27054
88.82135        203.96403        133.57123
89.62317        100.56097        156.29694
90.90639        105.83615        171.85999
91.38884        109.97807        122.42190
93.70390        112.91379        131.11246
92.50594        115.41439        143.84077
91.31580        115.78398        150.40398
92.26947        121.50102        143.53392
92.75345        124.45787        161.57100
88.75236        122.08780        176.38817
94.32230        138.90255        120.07447
108.41914        136.29006        158.54505
90.98231        135.98178        175.69888
91.32822        140.64195        135.86696
94.13511        142.27579        126.16703
91.42540        146.62070        130.27110
93.62256        154.04497        153.74223
95.31019        158.58645        143.41950
92.41558        155.15468        164.06580
91.16059        155.43103        175.55132
94.38547        162.56452        135.80153
95.45688        177.83414        135.77064
95.19344        174.17100        142.57151
95.16076        178.94854        128.32383
90.91693        185.51201        145.04155
88.70291        190.87482        139.52304
95.19270        135.33534        130.36636
97.97758        147.54560        108.94062
97.83108        145.29709        140.30089
96.85345        152.26225        115.82412
95.47679        150.18013        121.06370
97.04954        151.73651        128.12662
97.42986        164.44160        125.07859
96.59702        168.83561        150.64246
95.46037        175.47171        120.83601
100.06333        178.88258        94.61046
107.67435        184.00983        104.96781
101.70037        116.81842        135.11909
110.33363        118.87885        162.76165
100.29181        120.69723        150.67905
100.83282        120.85601        155.77539
101.91640        127.48375        146.92692
104.65504        127.17650        162.61903
100.97142        140.93854        120.89539
100.34288        144.57015        129.00990
108.95433        150.45276        99.04770
102.39143        149.88722        162.05316
100.43298        150.62834        120.37656
100.97592        156.00131        95.32912
100.79297        155.82874        123.36569
100.96427        155.53024        158.61234
107.22720        160.30344        91.75422
102.23753        161.70252        145.21195
107.31218        165.44138        107.57551
100.62004        170.92224        133.53180
98.16300        171.86833        168.57949
100.52050        176.02292        118.05345
99.58637        185.55915        122.88667
111.11100        99.07526        136.47941
112.94634        106.45051        143.58012
112.41820        109.07132        127.11002
108.43376        127.96321        101.23752
120.76208        135.96488        179.03936
111.46644        135.56900        100.84854
106.70437        141.15309        127.04227
108.99884        143.14046        109.36767
108.18935        140.57135        170.60974
109.39234        143.52620        139.41544
103.47984        150.51956        115.75909
106.46654        150.70683        125.79906
107.60668        155.74730        130.11047
105.67233        156.18506        160.92189
105.79215        160.79738        128.87491
105.87993        159.75764        150.52252
105.54406        160.67436        155.96568
105.75617        165.65717        137.77263
109.84186        173.03467        100.74894
110.57514        173.67121        108.81266
105.99902        170.74020        120.98091
105.73886        170.71266        139.45496
107.65263        177.61771        94.26311
106.60329        177.67062        129.46831
106.07336        175.12435        135.74870
103.58330        180.19276        100.69031
110.32917        95.02066        100.08033
117.22820        98.50842        114.79249
111.68150        105.99821        121.05267
115.96446        118.01360        98.19993
111.81490        123.21621        110.82215
110.19858        115.46138        124.85456
110.64391        120.63399        124.79198
113.05507        123.50919        155.34730
111.52814        126.15234        115.41288
114.31489        126.10565        126.32956
112.53519        130.75493        135.56754
112.10475        135.90883        117.18741
110.26815        143.20015        115.58113
110.19689        150.52310        130.16153
109.64802        161.33259        118.14081
109.90318        165.38948        123.55395
118.65806        177.35841        149.92058
110.63960        181.85103        153.97924
120.78245        177.88750        163.67750
118.42751        96.95710        101.08039
115.76020        106.32983        115.85780
116.52823        105.91666        134.39701
118.63266        106.04387        162.36019
115.66074        110.50322        95.71185
115.50774        109.82050        119.48355
115.42464        116.02762        120.41284
122.11163        119.24600        118.55978
115.85312        120.73645        135.27249
119.44287        121.51710        149.67296
115.68961        128.97082        100.70913
115.23981        126.16092        134.41728
115.17339        129.89783        130.44402
115.51900        145.58523        100.77931
121.98000        145.67755        108.98555
115.24496        145.68336        171.07162
119.73667        146.24495        178.52981
115.75429        158.22145        82.88521
119.51810        155.97143        108.49424
117.01323        150.47975        126.15498
118.12953        155.84431        128.25745
115.56341        159.77026        91.10651
117.56872        161.94430        99.33194
120.08217        164.57073        153.76228
118.34372        166.56954        105.93165
115.31192        165.87456        115.72681
115.16041        169.21083        110.33733
120.92476        191.04933        157.16274
124.05901        89.24749        115.55193
123.40321        101.39092        139.14394
124.97448        98.43990        120.66347
126.09449        100.91380        129.32301
120.96368        103.50002        110.48971
123.47920        108.57440        118.39605
135.65934        114.15167        136.51530
120.93257        111.94326        168.87999
120.79383        119.49021        128.85951
121.04001        115.85674        135.32765
122.13346        119.53666        159.52058
124.98130        118.23488        104.27603
129.53319        120.64117        175.25803
122.22445        127.14524        107.29929
121.22981        125.96102        126.19283
122.52547        126.97309        136.47488
120.75038        128.07857        101.22480
121.00333        130.35320        115.52291
123.95456        137.89572        108.66920
123.11863        134.37952        121.41373
120.96574        141.35913        164.95042
119.29440        144.95181        121.48127
125.99963        158.99291        87.31983
124.42843        149.44557        186.85692
121.36138        155.59024        135.44960
121.08136        160.81773        79.80612
120.72730        158.64168        115.57021
120.88966        162.63380        125.89677
127.02191        162.79008        163.93639
120.88385        165.76945        145.70889
120.80732        170.62633        161.24316
128.01891        182.02019        125.48591
122.73618        185.36177        163.98235
128.47464        96.81589        111.77222
126.23302        95.32472        125.97973
132.26678        107.32685        161.45545
128.45312        111.60982        170.72191
135.68469        108.31269        181.48538
126.57233        120.34988        126.27892
126.72483        129.80779        74.21236
130.62109        126.10673        93.70572
126.71649        127.32461        128.89876
128.25165        130.54416        80.59908
125.77712        130.02835        110.18051
132.72719        127.06951        157.58828
128.44929        138.09777        75.63198
135.39659        137.79490        92.30456
126.23862        137.04842        101.06427
132.64886        142.73527        83.44004
125.13275        141.75794        121.96865
127.66652        145.48781        165.56816
128.41228        141.78994        208.27393
132.82122        154.62056        205.27184
125.92120        150.41367        169.55881
124.00451        155.84994        140.71069
127.71242        156.91911        151.98514
128.26210        155.75472        170.29153
126.27548        170.56090        150.43414
127.71867        178.46763        153.82730
131.30497        94.07787        170.79174
130.48230        96.56300        144.49448
142.21894        95.40611        161.88817
135.15302        100.67237        107.14619
133.65622        100.55296        169.76803
130.87868        100.78947        176.05534
130.11124        107.38050        110.58031
136.95362        109.13442        118.38266
130.15157        110.22364        126.18375
134.26764        112.98888        185.73057
137.00921        119.12355        93.32780
132.22854        125.09207        116.64399
133.52202        121.82570        143.23238
140.56280        121.09338        186.09482
141.59789        135.83213        117.71449
134.51420        131.87470        168.50057
130.54793        140.68687        102.82909
130.24045        146.73839        158.75510
131.96447        149.82877        212.83384
130.25828        151.52462        145.39279
130.44885        151.03052        164.89149
130.58144        165.72434        151.20189
130.68292        170.98814        155.65143
135.07190        178.03779        141.83420
130.43257        176.27698        161.36060
150.08564        176.70275        141.87919
145.82265        84.28551        143.15320
139.94945        97.34490        180.33750
135.73730        97.24559        143.89754
136.98759        100.75182        120.71400
141.26449        106.45408        127.82898
135.78011        105.79897        170.24452
135.53207        110.17714        108.14166
135.75342        110.07779        125.91010
135.78915        107.83809        130.47513
135.39771        110.33313        144.03025
135.57330        116.83939        115.43512
138.90716        114.62093        170.26571
141.35102        126.73114        110.87818
136.04988        130.87875        100.53640
139.03225        128.15238        178.53517
136.90950        135.88957        175.88863
138.60075        143.14877        212.98293
144.81119        140.67031        106.61933
144.82508        146.75803        185.90703
136.88020        148.06562        150.32838
136.44064        145.08373        198.26375
139.35016        148.03188        204.25979
135.53807        150.97966        145.27014
135.89648        150.39287        160.77647
142.14337        156.18033        140.64960
138.57276        161.04566        152.86393
140.73454        171.39466        126.92923
138.07321        171.88330        135.74399
140.49474        171.67117        160.84412
135.61450        169.17014        165.56909
135.62899        185.75578        117.93684
136.11852        189.35765        125.09187
144.36449        76.04081        162.05018
146.52204        92.39547        139.02528
140.87509        100.54540        111.64911
149.29719        92.01532        167.77397
147.48340        117.76093        108.43401
141.32820        111.63153        141.04221
145.29109        114.10252        158.18421
143.81056        109.61778        175.69322
143.77812        119.85945        127.41117
140.53424        115.71915        150.46231
140.50349        115.80050        188.29389
144.31471        121.82958        85.59135
143.66112        118.61576        100.79086
140.15356        120.81250        118.20377
143.96695        120.65141        142.17868
143.91591        126.05222        161.15974
142.34912        126.75122        93.47654
140.61617        126.05133        120.53573
140.80975        123.77442        129.88550
140.54027        126.22414        146.64828
141.31750        130.54022        100.64241
139.51631        127.75428        126.78252
141.26579        130.35657        170.53659
144.83474        143.36268        134.67094
143.69000        135.57357        156.40835
142.81431        135.57972        184.23167
145.56103        141.11625        162.41565
140.85826        143.79752        109.85270
142.29430        145.52408        127.59417
141.97047        151.27774        129.61691
140.77483        149.29338        164.98357
142.36132        160.97133        161.43202
140.88178        167.71736        156.12086
141.24445        170.74998        141.01079
143.09249        178.10129        120.84979
151.82432        181.86135        117.55584
143.05538        185.74323        125.93529
142.96698        190.92429        120.86003
150.14735        77.79671        129.00036
145.58665        100.52869        115.53675
156.25878        105.50600        126.98766
152.33375        103.73291        111.33221
145.13792        108.78873        145.42359
146.52722        105.85922        150.27835
154.82576        111.69508        92.97566
145.32266        115.42101        126.27842
145.91286        122.63824        135.91238
145.39314        126.19142        103.49213
145.03416        125.61770        150.39972
146.75373        129.55768        178.97801
144.71925        132.33200        150.25298
147.44957        130.94038        185.03174
150.14714        139.73554        177.48910
149.19090        143.64530        93.62416
147.63666        140.99397        139.97194
145.35773        141.04750        155.38876
145.60375        143.68806        176.11258
142.80139        145.04225        115.95400
146.46777        146.51245        140.94080
145.57507        150.43338        144.96680
148.30388        152.69312        159.83950
145.20044        170.39063        135.64578
157.25459        176.21490        127.20798
149.49798        183.99310        135.88968
148.13298        191.75856        125.40267
149.19921        203.52794        110.82105
149.04932        210.78530        110.68611
160.55642        83.54348        158.10124
150.48442        85.64804        132.72354
153.91494        91.19265        100.22905
161.67310        94.63963        114.30432
150.40020        102.35740        152.08764
150.33315        100.61094        170.45284
149.19811        107.90966        180.84395
150.15849        112.76263        115.40224
150.68524        110.31910        139.48001
150.76340        115.42687        99.25803
150.50716        112.24810        120.85855
150.65345        116.38329        135.63192
152.81738        122.49304        91.11850
150.41211        120.41316        100.50565
150.62230        123.22091        150.87184
150.76369        124.70304        145.47279
150.71103        132.13200        93.86395
152.69036        133.29643        100.68935
157.41824        132.28111        113.04349
150.48506        130.75285        120.35083
151.35109        133.67588        143.38287
150.41857        130.74402        163.22823
153.09486        143.88195        80.84399
153.05458        139.02386        162.74468
159.72747        154.54170        85.09761
150.55119        149.61118        129.09592
150.56831        147.40610        147.85395
150.89323        153.42298        75.45569
153.92232        163.22203        115.92202
151.84967        163.32157        149.43263
154.20869        165.51217        126.07599
150.52892        165.63635        135.22629
148.14371        165.28938        140.80129
150.64682        170.95270        120.70485
150.59828        170.30360        126.09844
172.83257        194.58644        111.80162
154.14596        198.96374        116.05770
156.84395        73.16222        131.53098
154.51054        77.84918        150.45199
155.69252        78.45358        155.67371
163.99399        75.44688        136.70346
155.70968        95.69916        155.68047
156.58347        95.50371        121.80888
158.48607        98.50288        164.01430
159.62925        97.87145        172.75276
156.06893        109.30265        83.92266
153.64108        106.26899        140.73427
155.36147        105.60473        145.41223
155.99051        105.47977        150.39403
162.71119        108.61482        153.17133
156.10193        109.89988        91.10721
158.21188        113.83758        143.29214
160.75213        122.36215        100.29458
160.52400        122.81335        135.93850
155.61221        120.72652        141.06752
155.64296        127.81702        145.07334
154.36457        125.84902        156.22069
155.65714        126.30249        165.11613
161.87425        129.03404        166.67004
156.24609        135.76982        153.35013
162.52826        136.91674        175.43882
157.24363        143.69911        86.74544
155.42652        140.72666        108.35633
158.64697        141.46628        116.23429
155.89959        145.22089        143.50983
155.58307        140.96184        150.62137
155.66663        145.33499        98.35383
156.26395        144.74342        126.40439
159.01421        151.59038        138.43861
155.67656        148.93004        161.01483
158.86186        160.06720        140.36201
155.77504        155.76653        154.58281
154.52788        170.31335        130.41231
155.81522        175.47940        121.20402
164.78386        62.87303        136.88472
161.19343        68.67256        119.08758
161.45808        67.18138        127.65009
163.94105        88.23134        127.36255
161.53882        85.68163        161.64976
171.45691        92.53526        129.47027
162.69042        95.80447        125.82072
161.14816        96.19326        143.37805
161.22833        100.71490        130.37259
164.62713        106.82951        141.13216
163.27095        102.06029        145.37667
162.51292        111.40771        82.57350
160.44681        110.26892        119.26810
166.20460        118.53424        168.26620
168.25651        115.68744        131.35321
161.04750        115.13229        150.88507
161.11888        120.51169        130.51634
159.89865        120.99747        170.79100
166.05060        127.64538        179.85303
161.48021        125.70561        145.13838
161.28859        135.47664        140.52686
164.49480        133.36826        145.19260
163.02109        134.52654        156.60358
166.46005        141.90265        140.52508
161.35977        141.16467        154.27584
159.76828        143.93720        110.29232
167.32385        146.39509        128.79828
161.29694        145.24423        149.43208
167.36306        145.55796        161.31399
163.04107        150.53764        145.15806
160.68750        149.07816        155.79283
159.92471        155.81871        145.53423
163.23299        158.74906        152.42472
159.84300        166.56017        130.00536
163.22085        182.07198        116.74696
162.24850        196.98015        115.80100
163.38355        190.24371        121.54169
165.18890        60.53712        130.77142
165.28784        70.66705        130.36426
165.61373        70.72782        147.64803
165.60747        73.84686        120.96196
168.58572        75.74942        125.83867
164.02651        80.73290        144.91067
163.88288        85.99101        169.38468
165.35095        95.51264        120.69105
164.83995        100.81219        150.45879
165.47685        115.52417        141.26643
170.33574        128.12006        132.81943
165.60724        140.83998        165.19939
165.55966        145.17401        153.45899
169.67154        156.20656        150.45762
177.18394        157.25326        145.44816
165.10611        170.19514        91.23177
178.51442        66.97361        124.39712
171.12727        66.14456        105.97121
170.72272        63.32319        120.87473
170.95227        72.41135        110.48467
170.55708        73.43662        118.58966
170.22933        70.98569        150.69414
173.12972        80.38467        157.09618
170.75261        80.61663        136.66844
180.06865        108.20029        131.49178
172.93257        121.63620        157.19689
176.54376        126.17682        94.18209
171.70941        119.60422        143.61332
171.42911        130.27409        141.68442
172.22018        131.08478        167.92108
170.43692        128.94124        100.72054
170.76139        136.55346        86.30747
176.38810        135.80126        95.48188
170.92516        135.61018        131.96222
170.42539        135.86713        143.66678
170.70824        135.97679        155.91458
176.03856        142.45422        90.34152
170.67712        140.59589        130.29424
174.00351        137.63491        136.33809
181.03496        148.74659        156.23715
170.68655        150.34761        90.90235
170.45656        150.45718        160.71881
170.67735        158.34895        155.68126
170.48122        158.57718        160.83066
178.33548        164.30425        83.27202
170.88905        197.80395        116.33117
177.03109        64.38610        115.69065
176.33121        65.34568        110.23038
182.50425        76.20123        115.26466
177.59899        72.75165        131.98180
175.85657        76.81183        115.71267
177.81640        79.30096        120.44000
177.77731        81.55357        136.80374
175.71556        80.46865        161.43189
176.08446        95.26626        135.49115
177.55682        115.85720        130.25347
175.68585        121.07896        91.28172
174.37174        120.61726        150.63864
182.11212        130.29942        132.50816
174.50052        125.92395        145.04596
176.15198        141.45207        121.29468
183.01799        143.24339        129.01920
179.40810        153.23036        92.31501
182.55866        154.84424        124.64395
179.30902        150.74327        142.17133
177.75858        157.30742        157.39421
176.37128        154.34200        99.14383
180.10056        66.06006        106.13536
179.96564        100.72977        131.38424
179.81995        120.75584        130.61250
180.02237        135.97369        164.90114
180.06394        143.84296        101.43135
178.81334        139.53326        139.46811
181.58864        150.46752        83.96564
180.33929        150.56364        150.89084
180.32172        156.16884        72.20742
180.09607        155.66125        80.64211
179.98874        155.61034        85.70750
187.08009        72.71418        128.57133
187.21127        77.58018        137.90317
187.56909        99.02888        132.54114
185.07469        141.02881        82.59005
185.37299        149.12591        150.49373
186.87644        150.55100        128.93552
185.36301        160.48148        79.51049
186.99821        166.03065        91.61631
188.44849        140.76511        139.53142
