# .PCD v0.7 - Point Cloud Data file format
VERSION 0.7
FIELDS x y z
SIZE 4 4 4
TYPE F F F
COUNT 1 1 1
WIDTH 1599
HEIGHT 1
VIEWPOINT 0 0 0 1 0 0 0
POINTS 1599
DATA ascii
169.92000 119.92000 199.92000
169.92000 124.92000 179.92000
169.92000 124.92000 184.92000
169.92000 124.92000 189.92000
169.92000 124.92000 194.92000
169.92000 124.92000 199.92000
169.92000 129.92000 179.92000
169.92000 129.92000 199.92000
169.92000 129.92000 204.92000
169.92000 129.92000 214.92000
169.92000 134.92000 189.92000
169.92000 134.92000 194.92000
169.92000 134.92000 204.92000
169.92000 134.92000 214.92000
169.92000 139.92000 199.92000
169.92000 139.92000 204.92000
169.92000 159.92000 174.92000
169.92000 164.92000 174.92000
169.92000 164.92000 259.92000
169.92000 164.92000 274.92000
169.92000 169.92000 224.92000
169.92000 169.92000 259.92000
169.92000 169.92000 274.92000
169.92000 174.92000 229.92000
169.92000 174.92000 279.92000
169.92000 174.92000 284.92000
169.92000 179.92000 214.92000
169.92000 179.92000 219.92000
169.92000 179.92000 224.92000
169.92000 179.92000 234.92000
169.92000 179.92000 239.92000
169.92000 179.92000 279.92000
169.92000 179.92000 284.92000
169.92000 184.92000 229.92000
169.92000 184.92000 274.92000
169.92000 194.92000 219.92000
169.92000 194.92000 224.92000
169.92000 199.92000 209.92000
169.92000 199.92000 229.92000
169.92000 199.92000 244.92000
169.92000 199.92000 249.92000
169.92000 199.92000 254.92000
169.92000 199.92000 259.92000
169.92000 204.92000 234.92000
169.92000 204.92000 239.92000
169.92000 204.92000 244.92000
169.92000 204.92000 249.92000
169.92000 204.92000 259.92000
169.92000 209.92000 224.92000
169.92000 209.92000 244.92000
169.92000 209.92000 249.92000
169.92000 209.92000 259.92000
169.92000 209.92000 269.92000
169.92000 214.92000 204.92000
169.92000 214.92000 229.92000
169.92000 214.92000 234.92000
169.92000 214.92000 239.92000
169.92000 214.92000 254.92000
169.92000 214.92000 259.92000
169.92000 214.92000 264.92000
169.92000 219.92000 199.92000
169.92000 219.92000 209.92000
169.92000 219.92000 229.92000
169.92000 224.92000 204.92000
169.92000 224.92000 209.92000
169.92000 224.92000 214.92000
169.92000 224.92000 224.92000
169.92000 224.92000 229.92000
169.92000 224.92000 239.92000
169.92000 224.92000 244.92000
169.92000 229.92000 199.92000
169.92000 229.92000 204.92000
169.92000 229.92000 209.92000
169.92000 229.92000 239.92000
169.92000 229.92000 244.92000
169.92000 229.92000 264.92000
169.92000 229.92000 269.92000
169.92000 229.92000 294.92000
169.92000 234.92000 214.92000
169.92000 234.92000 224.92000
169.92000 234.92000 239.92000
169.92000 234.92000 244.92000
169.92000 234.92000 264.92000
169.92000 234.92000 289.92000
169.92000 239.92000 209.92000
169.92000 239.92000 219.92000
169.92000 239.92000 224.92000
169.92000 239.92000 229.92000
169.92000 239.92000 234.92000
169.92000 239.92000 279.92000
169.92000 244.92000 204.92000
169.92000 244.92000 219.92000
169.92000 244.92000 244.92000
169.92000 249.92000 204.92000
169.92000 249.92000 214.92000
169.92000 254.92000 194.92000
169.92000 254.92000 204.92000
169.92000 254.92000 209.92000
169.92000 254.92000 284.92000
169.92000 259.92000 189.92000
169.92000 259.92000 234.92000
169.92000 259.92000 239.92000
169.92000 259.92000 254.92000
169.92000 259.92000 264.92000
169.92000 264.92000 194.92000
169.92000 264.92000 209.92000
169.92000 264.92000 214.92000
169.92000 264.92000 234.92000
169.92000 264.92000 259.92000
169.92000 264.92000 264.92000
169.92000 269.92000 184.92000
169.92000 269.92000 189.92000
169.92000 269.92000 199.92000
169.92000 269.92000 244.92000
169.92000 274.92000 174.92000
169.92000 274.92000 179.92000
169.92000 274.92000 184.92000
169.92000 274.92000 189.92000
169.92000 274.92000 204.92000
169.92000 274.92000 219.92000
169.92000 274.92000 229.92000
169.92000 274.92000 234.92000
169.92000 274.92000 244.92000
169.92000 279.92000 174.92000
169.92000 279.92000 194.92000
169.92000 279.92000 199.92000
169.92000 279.92000 204.92000
169.92000 279.92000 209.92000
169.92000 279.92000 214.92000
169.92000 279.92000 224.92000
169.92000 284.92000 174.92000
169.92000 284.92000 179.92000
169.92000 284.92000 184.92000
169.92000 284.92000 199.92000
169.92000 284.92000 214.92000
169.92000 284.92000 219.92000
169.92000 284.92000 224.92000
169.92000 289.92000 204.92000
169.92000 289.92000 254.92000
169.92000 294.92000 189.92000
174.92000 89.92000 189.92000
174.92000 89.92000 194.92000
174.92000 89.92000 204.92000
174.92000 89.92000 259.92000
174.92000 94.92000 189.92000
174.92000 94.92000 194.92000
174.92000 94.92000 199.92000
174.92000 94.92000 204.92000
174.92000 94.92000 259.92000
174.92000 94.92000 264.92000
174.92000 99.92000 179.92000
174.92000 99.92000 184.92000
174.92000 99.92000 189.92000
174.92000 99.92000 194.92000
174.92000 99.92000 199.92000
174.92000 99.92000 259.92000
174.92000 104.92000 174.92000
174.92000 104.92000 179.92000
174.92000 104.92000 184.92000
174.92000 104.92000 189.92000
174.92000 104.92000 194.92000
174.92000 104.92000 199.92000
174.92000 104.92000 204.92000
174.92000 109.92000 174.92000
174.92000 109.92000 184.92000
174.92000 109.92000 204.92000
174.92000 114.92000 179.92000
174.92000 114.92000 184.92000
174.92000 114.92000 199.92000
174.92000 114.92000 204.92000
174.92000 119.92000 194.92000
174.92000 119.92000 204.92000
174.92000 119.92000 209.92000
174.92000 124.92000 184.92000
174.92000 124.92000 204.92000
174.92000 129.92000 184.92000
174.92000 129.92000 194.92000
174.92000 129.92000 199.92000
174.92000 129.92000 204.92000
174.92000 134.92000 184.92000
174.92000 134.92000 194.92000
174.92000 134.92000 199.92000
174.92000 134.92000 209.92000
174.92000 139.92000 204.92000
174.92000 144.92000 199.92000
174.92000 154.92000 239.92000
174.92000 159.92000 169.92000
174.92000 159.92000 174.92000
174.92000 169.92000 209.92000
174.92000 169.92000 264.92000
174.92000 169.92000 269.92000
174.92000 169.92000 279.92000
174.92000 169.92000 284.92000
174.92000 169.92000 289.92000
174.92000 174.92000 139.92000
174.92000 174.92000 224.92000
174.92000 174.92000 229.92000
174.92000 174.92000 264.92000
174.92000 174.92000 274.92000
174.92000 174.92000 289.92000
174.92000 179.92000 244.92000
174.92000 179.92000 294.92000
174.92000 184.92000 139.92000
174.92000 184.92000 239.92000
174.92000 184.92000 279.92000
174.92000 184.92000 284.92000
174.92000 189.92000 204.92000
174.92000 189.92000 279.92000
174.92000 194.92000 224.92000
174.92000 199.92000 244.92000
174.92000 199.92000 254.92000
174.92000 199.92000 259.92000
174.92000 204.92000 174.92000
174.92000 204.92000 199.92000
174.92000 204.92000 234.92000
174.92000 204.92000 239.92000
174.92000 204.92000 244.92000
174.92000 204.92000 269.92000
174.92000 209.92000 179.92000
174.92000 209.92000 219.92000
174.92000 209.92000 229.92000
174.92000 209.92000 244.92000
174.92000 209.92000 259.92000
174.92000 209.92000 264.92000
174.92000 214.92000 244.92000
174.92000 219.92000 199.92000
174.92000 219.92000 209.92000
174.92000 219.92000 214.92000
174.92000 224.92000 194.92000
174.92000 224.92000 199.92000
174.92000 224.92000 204.92000
174.92000 224.92000 209.92000
174.92000 224.92000 229.92000
174.92000 224.92000 239.92000
174.92000 224.92000 244.92000
174.92000 224.92000 249.92000
174.92000 224.92000 254.92000
174.92000 224.92000 269.92000
174.92000 229.92000 204.92000
174.92000 229.92000 209.92000
174.92000 229.92000 214.92000
174.92000 229.92000 219.92000
174.92000 229.92000 239.92000
174.92000 229.92000 249.92000
174.92000 229.92000 254.92000
174.92000 229.92000 269.92000
174.92000 229.92000 274.92000
174.92000 229.92000 279.92000
174.92000 229.92000 289.92000
174.92000 234.92000 209.92000
174.92000 234.92000 214.92000
174.92000 234.92000 219.92000
174.92000 234.92000 224.92000
174.92000 234.92000 239.92000
174.92000 234.92000 244.92000
174.92000 234.92000 249.92000
174.92000 234.92000 254.92000
174.92000 234.92000 259.92000
174.92000 234.92000 264.92000
174.92000 234.92000 269.92000
174.92000 234.92000 274.92000
174.92000 234.92000 279.92000
174.92000 239.92000 214.92000
174.92000 239.92000 219.92000
174.92000 239.92000 254.92000
174.92000 239.92000 259.92000
174.92000 239.92000 269.92000
174.92000 239.92000 274.92000
174.92000 244.92000 204.92000
174.92000 244.92000 224.92000
174.92000 244.92000 254.92000
174.92000 249.92000 194.92000
174.92000 249.92000 199.92000
174.92000 249.92000 214.92000
174.92000 249.92000 234.92000
174.92000 254.92000 209.92000
174.92000 254.92000 219.92000
174.92000 254.92000 229.92000
174.92000 254.92000 249.92000
174.92000 254.92000 254.92000
174.92000 254.92000 274.92000
174.92000 254.92000 279.92000
174.92000 259.92000 194.92000
174.92000 259.92000 199.92000
174.92000 259.92000 229.92000
174.92000 259.92000 259.92000
174.92000 259.92000 269.92000
174.92000 264.92000 194.92000
174.92000 264.92000 209.92000
174.92000 264.92000 249.92000
174.92000 264.92000 259.92000
174.92000 264.92000 264.92000
174.92000 264.92000 269.92000
174.92000 269.92000 184.92000
174.92000 269.92000 189.92000
174.92000 269.92000 199.92000
174.92000 269.92000 204.92000
174.92000 269.92000 219.92000
174.92000 269.92000 224.92000
174.92000 269.92000 229.92000
174.92000 274.92000 179.92000
174.92000 274.92000 184.92000
174.92000 279.92000 174.92000
174.92000 279.92000 179.92000
174.92000 279.92000 199.92000
174.92000 279.92000 204.92000
174.92000 279.92000 209.92000
174.92000 284.92000 174.92000
174.92000 284.92000 179.92000
174.92000 284.92000 184.92000
174.92000 284.92000 189.92000
174.92000 284.92000 194.92000
174.92000 284.92000 199.92000
174.92000 284.92000 204.92000
174.92000 284.92000 224.92000
174.92000 284.92000 229.92000
174.92000 289.92000 249.92000
174.92000 289.92000 254.92000
174.92000 294.92000 189.92000
174.92000 299.92000 189.92000
179.92000 79.92000 199.92000
179.92000 79.92000 204.92000
179.92000 84.92000 194.92000
179.92000 84.92000 204.92000
179.92000 89.92000 164.92000
179.92000 89.92000 169.92000
179.92000 89.92000 194.92000
179.92000 89.92000 204.92000
179.92000 94.92000 169.92000
179.92000 94.92000 199.92000
179.92000 99.92000 169.92000
179.92000 99.92000 179.92000
179.92000 99.92000 184.92000
179.92000 99.92000 189.92000
179.92000 99.92000 199.92000
179.92000 99.92000 209.92000
179.92000 99.92000 214.92000
179.92000 99.92000 264.92000
179.92000 104.92000 164.92000
179.92000 104.92000 174.92000
179.92000 104.92000 179.92000
179.92000 104.92000 184.92000
179.92000 104.92000 189.92000
179.92000 104.92000 199.92000
179.92000 104.92000 204.92000
179.92000 109.92000 159.92000
179.92000 109.92000 164.92000
179.92000 109.92000 174.92000
179.92000 109.92000 179.92000
179.92000 109.92000 189.92000
179.92000 109.92000 194.92000
179.92000 109.92000 199.92000
179.92000 114.92000 164.92000
179.92000 124.92000 189.92000
179.92000 129.92000 189.92000
179.92000 129.92000 194.92000
179.92000 129.92000 199.92000
179.92000 129.92000 204.92000
179.92000 129.92000 209.92000
179.92000 134.92000 184.92000
179.92000 134.92000 189.92000
179.92000 134.92000 199.92000
179.92000 134.92000 204.92000
179.92000 144.92000 174.92000
179.92000 144.92000 199.92000
179.92000 144.92000 204.92000
179.92000 144.92000 209.92000
179.92000 154.92000 179.92000
179.92000 154.92000 239.92000
179.92000 159.92000 174.92000
179.92000 159.92000 179.92000
179.92000 159.92000 234.92000
179.92000 159.92000 239.92000
179.92000 159.92000 279.92000
179.92000 164.92000 274.92000
179.92000 169.92000 259.92000
179.92000 169.92000 269.92000
179.92000 169.92000 284.92000
179.92000 174.92000 254.92000
179.92000 174.92000 259.92000
179.92000 174.92000 269.92000
179.92000 174.92000 284.92000
179.92000 179.92000 119.92000
179.92000 179.92000 229.92000
179.92000 179.92000 249.92000
179.92000 179.92000 269.92000
179.92000 179.92000 274.92000
179.92000 179.92000 294.92000
179.92000 184.92000 229.92000
179.92000 184.92000 244.92000
179.92000 184.92000 249.92000
179.92000 184.92000 279.92000
179.92000 184.92000 289.92000
179.92000 184.92000 294.92000
179.92000 189.92000 134.92000
179.92000 189.92000 139.92000
179.92000 189.92000 184.92000
179.92000 189.92000 234.92000
179.92000 189.92000 279.92000
179.92000 189.92000 284.92000
179.92000 194.92000 209.92000
179.92000 194.92000 229.92000
179.92000 199.92000 199.92000
179.92000 199.92000 204.92000
179.92000 199.92000 229.92000
179.92000 199.92000 239.92000
179.92000 199.92000 259.92000
179.92000 204.92000 194.92000
179.92000 204.92000 239.92000
179.92000 204.92000 249.92000
179.92000 209.92000 239.92000
179.92000 209.92000 244.92000
179.92000 209.92000 249.92000
179.92000 209.92000 259.92000
179.92000 209.92000 269.92000
179.92000 209.92000 279.92000
179.92000 214.92000 249.92000
179.92000 214.92000 264.92000
179.92000 214.92000 269.92000
179.92000 214.92000 284.92000
179.92000 214.92000 294.92000
179.92000 219.92000 194.92000
179.92000 219.92000 204.92000
179.92000 219.92000 209.92000
179.92000 219.92000 214.92000
179.92000 219.92000 259.92000
179.92000 219.92000 289.92000
179.92000 219.92000 294.92000
179.92000 219.92000 299.92000
179.92000 219.92000 304.92000
179.92000 224.92000 224.92000
179.92000 224.92000 234.92000
179.92000 224.92000 239.92000
179.92000 224.92000 244.92000
179.92000 224.92000 269.92000
179.92000 224.92000 274.92000
179.92000 224.92000 279.92000
179.92000 224.92000 294.92000
179.92000 224.92000 299.92000
179.92000 224.92000 304.92000
179.92000 229.92000 194.92000
179.92000 229.92000 209.92000
179.92000 229.92000 219.92000
179.92000 229.92000 234.92000
179.92000 229.92000 239.92000
179.92000 229.92000 244.92000
179.92000 229.92000 249.92000
179.92000 229.92000 254.92000
179.92000 229.92000 259.92000
179.92000 229.92000 274.92000
179.92000 229.92000 289.92000
179.92000 229.92000 294.92000
179.92000 229.92000 304.92000
179.92000 234.92000 169.92000
179.92000 234.92000 214.92000
179.92000 234.92000 219.92000
179.92000 234.92000 224.92000
179.92000 234.92000 229.92000
179.92000 234.92000 234.92000
179.92000 234.92000 239.92000
179.92000 234.92000 264.92000
179.92000 234.92000 289.92000
179.92000 239.92000 159.92000
179.92000 239.92000 164.92000
179.92000 239.92000 169.92000
179.92000 239.92000 189.92000
179.92000 239.92000 214.92000
179.92000 239.92000 219.92000
179.92000 239.92000 224.92000
179.92000 239.92000 259.92000
179.92000 239.92000 264.92000
179.92000 244.92000 154.92000
179.92000 244.92000 159.92000
179.92000 244.92000 169.92000
179.92000 244.92000 219.92000
179.92000 244.92000 224.92000
179.92000 244.92000 259.92000
179.92000 249.92000 194.92000
179.92000 249.92000 199.92000
179.92000 249.92000 204.92000
179.92000 249.92000 219.92000
179.92000 249.92000 244.92000
179.92000 249.92000 249.92000
179.92000 254.92000 194.92000
179.92000 254.92000 199.92000
179.92000 254.92000 214.92000
179.92000 254.92000 264.92000
179.92000 259.92000 194.92000
179.92000 259.92000 199.92000
179.92000 259.92000 229.92000
179.92000 259.92000 234.92000
179.92000 259.92000 274.92000
179.92000 264.92000 219.92000
179.92000 264.92000 274.92000
179.92000 269.92000 194.92000
179.92000 269.92000 199.92000
179.92000 269.92000 204.92000
179.92000 269.92000 224.92000
179.92000 269.92000 264.92000
179.92000 274.92000 194.92000
179.92000 274.92000 199.92000
179.92000 274.92000 209.92000
179.92000 274.92000 234.92000
179.92000 274.92000 239.92000
179.92000 279.92000 174.92000
179.92000 279.92000 194.92000
179.92000 279.92000 209.92000
179.92000 284.92000 174.92000
179.92000 284.92000 179.92000
179.92000 284.92000 184.92000
179.92000 284.92000 189.92000
179.92000 284.92000 204.92000
179.92000 284.92000 224.92000
179.92000 284.92000 229.92000
179.92000 284.92000 234.92000
179.92000 289.92000 189.92000
179.92000 289.92000 194.92000
179.92000 289.92000 214.92000
179.92000 289.92000 219.92000
179.92000 289.92000 254.92000
179.92000 294.92000 194.92000
179.92000 294.92000 209.92000
179.92000 294.92000 229.92000
179.92000 299.92000 194.92000
179.92000 299.92000 209.92000
179.92000 299.92000 224.92000
179.92000 304.92000 194.92000
179.92000 304.92000 199.92000
179.92000 304.92000 204.92000
179.92000 304.92000 209.92000
184.92000 74.92000 194.92000
184.92000 79.92000 189.92000
184.92000 79.92000 204.92000
184.92000 79.92000 209.92000
184.92000 84.92000 209.92000
184.92000 89.92000 164.92000
184.92000 89.92000 174.92000
184.92000 89.92000 194.92000
184.92000 89.92000 199.92000
184.92000 89.92000 209.92000
184.92000 89.92000 214.92000
184.92000 94.92000 169.92000
184.92000 94.92000 174.92000
184.92000 94.92000 179.92000
184.92000 94.92000 184.92000
184.92000 94.92000 189.92000
184.92000 94.92000 264.92000
184.92000 94.92000 269.92000
184.92000 99.92000 179.92000
184.92000 99.92000 184.92000
184.92000 99.92000 199.92000
184.92000 99.92000 204.92000
184.92000 99.92000 209.92000
184.92000 99.92000 214.92000
184.92000 99.92000 264.92000
184.92000 99.92000 269.92000
184.92000 99.92000 274.92000
184.92000 104.92000 169.92000
184.92000 104.92000 179.92000
184.92000 104.92000 189.92000
184.92000 104.92000 199.92000
184.92000 104.92000 209.92000
184.92000 109.92000 164.92000
184.92000 109.92000 169.92000
184.92000 109.92000 179.92000
184.92000 109.92000 184.92000
184.92000 109.92000 189.92000
184.92000 109.92000 194.92000
184.92000 109.92000 209.92000
184.92000 109.92000 299.92000
184.92000 114.92000 164.92000
184.92000 114.92000 169.92000
184.92000 114.92000 184.92000
184.92000 114.92000 189.92000
184.92000 119.92000 169.92000
184.92000 124.92000 149.92000
184.92000 124.92000 184.92000
184.92000 129.92000 189.92000
184.92000 134.92000 159.92000
184.92000 134.92000 204.92000
184.92000 134.92000 209.92000
184.92000 144.92000 164.92000
184.92000 144.92000 169.92000
184.92000 144.92000 174.92000
184.92000 144.92000 234.92000
184.92000 149.92000 174.92000
184.92000 149.92000 179.92000
184.92000 154.92000 179.92000
184.92000 154.92000 189.92000
184.92000 159.92000 174.92000
184.92000 159.92000 179.92000
184.92000 159.92000 224.92000
184.92000 159.92000 234.92000
184.92000 159.92000 279.92000
184.92000 159.92000 284.92000
184.92000 164.92000 254.92000
184.92000 164.92000 259.92000
184.92000 164.92000 284.92000
184.92000 164.92000 289.92000
184.92000 169.92000 264.92000
184.92000 169.92000 289.92000
184.92000 169.92000 294.92000
184.92000 174.92000 254.92000
184.92000 174.92000 284.92000
184.92000 179.92000 124.92000
184.92000 179.92000 129.92000
184.92000 179.92000 134.92000
184.92000 179.92000 139.92000
184.92000 179.92000 144.92000
184.92000 179.92000 239.92000
184.92000 179.92000 249.92000
184.92000 179.92000 254.92000
184.92000 179.92000 289.92000
184.92000 179.92000 294.92000
184.92000 184.92000 144.92000
184.92000 184.92000 149.92000
184.92000 184.92000 229.92000
184.92000 184.92000 234.92000
184.92000 184.92000 239.92000
184.92000 184.92000 254.92000
184.92000 184.92000 269.92000
184.92000 189.92000 139.92000
184.92000 189.92000 144.92000
184.92000 189.92000 189.92000
184.92000 189.92000 229.92000
184.92000 189.92000 269.92000
184.92000 194.92000 184.92000
184.92000 194.92000 194.92000
184.92000 194.92000 199.92000
184.92000 194.92000 239.92000
184.92000 194.92000 244.92000
184.92000 194.92000 274.92000
184.92000 194.92000 284.92000
184.92000 199.92000 214.92000
184.92000 199.92000 229.92000
184.92000 199.92000 234.92000
184.92000 199.92000 239.92000
184.92000 199.92000 249.92000
184.92000 199.92000 259.92000
184.92000 199.92000 264.92000
184.92000 199.92000 269.92000
184.92000 199.92000 284.92000
184.92000 204.92000 184.92000
184.92000 204.92000 194.92000
184.92000 204.92000 199.92000
184.92000 204.92000 234.92000
184.92000 204.92000 239.92000
184.92000 204.92000 244.92000
184.92000 204.92000 249.92000
184.92000 209.92000 209.92000
184.92000 209.92000 229.92000
184.92000 209.92000 239.92000
184.92000 209.92000 254.92000
184.92000 209.92000 279.92000
184.92000 214.92000 214.92000
184.92000 214.92000 254.92000
184.92000 214.92000 264.92000
184.92000 214.92000 284.92000
184.92000 214.92000 304.92000
184.92000 219.92000 194.92000
184.92000 219.92000 204.92000
184.92000 219.92000 274.92000
184.92000 219.92000 294.92000
184.92000 219.92000 299.92000
184.92000 219.92000 304.92000
184.92000 224.92000 209.92000
184.92000 224.92000 219.92000
184.92000 224.92000 244.92000
184.92000 224.92000 264.92000
184.92000 224.92000 269.92000
184.92000 224.92000 274.92000
184.92000 224.92000 279.92000
184.92000 224.92000 299.92000
184.92000 229.92000 189.92000
184.92000 229.92000 224.92000
184.92000 229.92000 229.92000
184.92000 229.92000 239.92000
184.92000 229.92000 254.92000
184.92000 229.92000 274.92000
184.92000 229.92000 284.92000
184.92000 229.92000 294.92000
184.92000 229.92000 299.92000
184.92000 234.92000 159.92000
184.92000 234.92000 164.92000
184.92000 234.92000 174.92000
184.92000 234.92000 214.92000
184.92000 234.92000 219.92000
184.92000 234.92000 224.92000
184.92000 234.92000 229.92000
184.92000 234.92000 234.92000
184.92000 234.92000 254.92000
184.92000 234.92000 259.92000
184.92000 234.92000 264.92000
184.92000 234.92000 284.92000
184.92000 234.92000 289.92000
184.92000 234.92000 294.92000
184.92000 234.92000 299.92000
184.92000 239.92000 159.92000
184.92000 239.92000 169.92000
184.92000 239.92000 174.92000
184.92000 239.92000 179.92000
184.92000 239.92000 184.92000
184.92000 239.92000 194.92000
184.92000 239.92000 229.92000
184.92000 239.92000 279.92000
184.92000 244.92000 154.92000
184.92000 244.92000 159.92000
184.92000 244.92000 169.92000
184.92000 244.92000 174.92000
184.92000 244.92000 224.92000
184.92000 244.92000 229.92000
184.92000 244.92000 234.92000
184.92000 244.92000 259.92000
184.92000 244.92000 264.92000
184.92000 244.92000 284.92000
184.92000 244.92000 289.92000
184.92000 249.92000 169.92000
184.92000 249.92000 174.92000
184.92000 249.92000 199.92000
184.92000 249.92000 204.92000
184.92000 249.92000 219.92000
184.92000 249.92000 224.92000
184.92000 249.92000 229.92000
184.92000 249.92000 234.92000
184.92000 249.92000 239.92000
184.92000 254.92000 219.92000
184.92000 254.92000 249.92000
184.92000 254.92000 264.92000
184.92000 254.92000 274.92000
184.92000 259.92000 199.92000
184.92000 259.92000 214.92000
184.92000 259.92000 224.92000
184.92000 259.92000 229.92000
184.92000 259.92000 234.92000
184.92000 259.92000 244.92000
184.92000 259.92000 274.92000
184.92000 264.92000 209.92000
184.92000 264.92000 244.92000
184.92000 264.92000 254.92000
184.92000 264.92000 264.92000
184.92000 269.92000 199.92000
184.92000 269.92000 204.92000
184.92000 269.92000 254.92000
184.92000 274.92000 189.92000
184.92000 274.92000 194.92000
184.92000 274.92000 199.92000
184.92000 274.92000 209.92000
184.92000 274.92000 214.92000
184.92000 274.92000 224.92000
184.92000 274.92000 254.92000
184.92000 274.92000 284.92000
184.92000 274.92000 304.92000
184.92000 279.92000 184.92000
184.92000 279.92000 194.92000
184.92000 279.92000 209.92000
184.92000 279.92000 219.92000
184.92000 279.92000 224.92000
184.92000 284.92000 184.92000
184.92000 284.92000 209.92000
184.92000 284.92000 214.92000
184.92000 284.92000 219.92000
184.92000 284.92000 224.92000
184.92000 284.92000 239.92000
184.92000 289.92000 179.92000
184.92000 289.92000 184.92000
184.92000 289.92000 189.92000
184.92000 289.92000 259.92000
184.92000 294.92000 209.92000
184.92000 294.92000 229.92000
184.92000 299.92000 184.92000
184.92000 299.92000 199.92000
184.92000 299.92000 209.92000
184.92000 299.92000 214.92000
184.92000 299.92000 229.92000
184.92000 304.92000 189.92000
184.92000 304.92000 199.92000
184.92000 304.92000 209.92000
184.92000 309.92000 189.92000
189.92000 74.92000 189.92000
189.92000 74.92000 194.92000
189.92000 74.92000 199.92000
189.92000 79.92000 174.92000
189.92000 79.92000 179.92000
189.92000 79.92000 209.92000
189.92000 84.92000 164.92000
189.92000 84.92000 169.92000
189.92000 84.92000 174.92000
189.92000 84.92000 189.92000
189.92000 84.92000 199.92000
189.92000 89.92000 164.92000
189.92000 89.92000 169.92000
189.92000 89.92000 174.92000
189.92000 89.92000 199.92000
189.92000 89.92000 274.92000
189.92000 94.92000 164.92000
189.92000 94.92000 169.92000
189.92000 94.92000 174.92000
189.92000 94.92000 179.92000
189.92000 94.92000 199.92000
189.92000 94.92000 204.92000
189.92000 94.92000 209.92000
189.92000 94.92000 214.92000
189.92000 94.92000 219.92000
189.92000 94.92000 269.92000
189.92000 99.92000 174.92000
189.92000 99.92000 179.92000
189.92000 99.92000 184.92000
189.92000 99.92000 209.92000
189.92000 99.92000 219.92000
189.92000 99.92000 269.92000
189.92000 99.92000 274.92000
189.92000 99.92000 304.92000
189.92000 104.92000 169.92000
189.92000 104.92000 174.92000
189.92000 104.92000 189.92000
189.92000 104.92000 199.92000
189.92000 104.92000 204.92000
189.92000 104.92000 289.92000
189.92000 104.92000 304.92000
189.92000 109.92000 159.92000
189.92000 109.92000 164.92000
189.92000 109.92000 179.92000
189.92000 109.92000 194.92000
189.92000 109.92000 279.92000
189.92000 109.92000 304.92000
189.92000 114.92000 154.92000
189.92000 114.92000 159.92000
189.92000 114.92000 164.92000
189.92000 114.92000 199.92000
189.92000 114.92000 214.92000
189.92000 114.92000 269.92000
189.92000 119.92000 149.92000
189.92000 119.92000 154.92000
189.92000 119.92000 159.92000
189.92000 119.92000 164.92000
189.92000 119.92000 169.92000
189.92000 119.92000 174.92000
189.92000 119.92000 194.92000
189.92000 119.92000 199.92000
189.92000 124.92000 149.92000
189.92000 124.92000 184.92000
189.92000 124.92000 189.92000
189.92000 124.92000 194.92000
189.92000 129.92000 159.92000
189.92000 129.92000 189.92000
189.92000 134.92000 149.92000
189.92000 134.92000 189.92000
189.92000 134.92000 194.92000
189.92000 139.92000 169.92000
189.92000 139.92000 174.92000
189.92000 144.92000 174.92000
189.92000 144.92000 179.92000
189.92000 144.92000 239.92000
189.92000 144.92000 244.92000
189.92000 149.92000 164.92000
189.92000 149.92000 169.92000
189.92000 149.92000 179.92000
189.92000 154.92000 179.92000
189.92000 164.92000 254.92000
189.92000 169.92000 264.92000
189.92000 169.92000 274.92000
189.92000 169.92000 279.92000
189.92000 174.92000 129.92000
189.92000 174.92000 134.92000
189.92000 174.92000 144.92000
189.92000 174.92000 149.92000
189.92000 174.92000 249.92000
189.92000 174.92000 254.92000
189.92000 174.92000 259.92000
189.92000 174.92000 269.92000
189.92000 174.92000 284.92000
189.92000 179.92000 124.92000
189.92000 179.92000 129.92000
189.92000 179.92000 134.92000
189.92000 179.92000 139.92000
189.92000 179.92000 144.92000
189.92000 179.92000 239.92000
189.92000 179.92000 244.92000
189.92000 179.92000 249.92000
189.92000 179.92000 254.92000
189.92000 179.92000 259.92000
189.92000 179.92000 269.92000
189.92000 179.92000 299.92000
189.92000 184.92000 119.92000
189.92000 184.92000 124.92000
189.92000 184.92000 129.92000
189.92000 184.92000 134.92000
189.92000 184.92000 139.92000
189.92000 184.92000 144.92000
189.92000 184.92000 149.92000
189.92000 184.92000 229.92000
189.92000 184.92000 234.92000
189.92000 184.92000 239.92000
189.92000 184.92000 244.92000
189.92000 184.92000 279.92000
189.92000 184.92000 294.92000
189.92000 189.92000 129.92000
189.92000 189.92000 134.92000
189.92000 189.92000 139.92000
189.92000 189.92000 144.92000
189.92000 189.92000 149.92000
189.92000 189.92000 154.92000
189.92000 189.92000 234.92000
189.92000 189.92000 239.92000
189.92000 189.92000 249.92000
189.92000 189.92000 264.92000
189.92000 189.92000 284.92000
189.92000 189.92000 294.92000
189.92000 189.92000 299.92000
189.92000 194.92000 139.92000
189.92000 194.92000 144.92000
189.92000 194.92000 149.92000
189.92000 194.92000 154.92000
189.92000 194.92000 224.92000
189.92000 194.92000 244.92000
189.92000 194.92000 254.92000
189.92000 194.92000 284.92000
189.92000 199.92000 154.92000
189.92000 199.92000 174.92000
189.92000 199.92000 179.92000
189.92000 199.92000 209.92000
189.92000 199.92000 219.92000
189.92000 199.92000 224.92000
189.92000 199.92000 229.92000
189.92000 199.92000 259.92000
189.92000 204.92000 159.92000
189.92000 204.92000 174.92000
189.92000 204.92000 179.92000
189.92000 204.92000 214.92000
189.92000 204.92000 224.92000
189.92000 204.92000 229.92000
189.92000 204.92000 234.92000
189.92000 204.92000 244.92000
189.92000 204.92000 279.92000
189.92000 204.92000 289.92000
189.92000 209.92000 169.92000
189.92000 209.92000 174.92000
189.92000 209.92000 229.92000
189.92000 209.92000 244.92000
189.92000 209.92000 249.92000
189.92000 209.92000 254.92000
189.92000 209.92000 284.92000
189.92000 214.92000 214.92000
189.92000 214.92000 249.92000
189.92000 214.92000 254.92000
189.92000 214.92000 259.92000
189.92000 214.92000 274.92000
189.92000 214.92000 284.92000
189.92000 214.92000 309.92000
189.92000 219.92000 249.92000
189.92000 219.92000 264.92000
189.92000 219.92000 274.92000
189.92000 219.92000 294.92000
189.92000 219.92000 299.92000
189.92000 219.92000 304.92000
189.92000 219.92000 309.92000
189.92000 224.92000 214.92000
189.92000 224.92000 219.92000
189.92000 224.92000 229.92000
189.92000 224.92000 249.92000
189.92000 224.92000 259.92000
189.92000 224.92000 269.92000
189.92000 224.92000 274.92000
189.92000 224.92000 279.92000
189.92000 224.92000 304.92000
189.92000 224.92000 309.92000
189.92000 229.92000 209.92000
189.92000 229.92000 214.92000
189.92000 229.92000 234.92000
189.92000 229.92000 239.92000
189.92000 229.92000 254.92000
189.92000 229.92000 274.92000
189.92000 229.92000 279.92000
189.92000 229.92000 284.92000
189.92000 234.92000 144.92000
189.92000 234.92000 204.92000
189.92000 234.92000 214.92000
189.92000 234.92000 239.92000
189.92000 234.92000 244.92000
189.92000 234.92000 249.92000
189.92000 234.92000 274.92000
189.92000 234.92000 279.92000
189.92000 234.92000 284.92000
189.92000 234.92000 289.92000
189.92000 234.92000 294.92000
189.92000 239.92000 149.92000
189.92000 239.92000 154.92000
189.92000 239.92000 169.92000
189.92000 239.92000 179.92000
189.92000 239.92000 184.92000
189.92000 239.92000 194.92000
189.92000 239.92000 209.92000
189.92000 239.92000 244.92000
189.92000 244.92000 159.92000
189.92000 244.92000 164.92000
189.92000 244.92000 169.92000
189.92000 244.92000 209.92000
189.92000 244.92000 234.92000
189.92000 244.92000 239.92000
189.92000 244.92000 264.92000
189.92000 244.92000 269.92000
189.92000 244.92000 284.92000
189.92000 244.92000 289.92000
189.92000 249.92000 159.92000
189.92000 249.92000 164.92000
189.92000 249.92000 174.92000
189.92000 249.92000 199.92000
189.92000 249.92000 204.92000
189.92000 249.92000 209.92000
189.92000 249.92000 214.92000
189.92000 249.92000 219.92000
189.92000 249.92000 254.92000
189.92000 249.92000 274.92000
189.92000 254.92000 159.92000
189.92000 254.92000 169.92000
189.92000 254.92000 174.92000
189.92000 254.92000 229.92000
189.92000 254.92000 234.92000
189.92000 254.92000 239.92000
189.92000 254.92000 244.92000
189.92000 254.92000 249.92000
189.92000 254.92000 264.92000
189.92000 254.92000 284.92000
189.92000 259.92000 199.92000
189.92000 259.92000 204.92000
189.92000 259.92000 214.92000
189.92000 259.92000 219.92000
189.92000 259.92000 224.92000
189.92000 259.92000 239.92000
189.92000 259.92000 279.92000
189.92000 264.92000 269.92000
189.92000 269.92000 199.92000
189.92000 269.92000 209.92000
189.92000 269.92000 214.92000
189.92000 269.92000 219.92000
189.92000 269.92000 244.92000
189.92000 269.92000 294.92000
189.92000 269.92000 304.92000
189.92000 274.92000 204.92000
189.92000 274.92000 214.92000
189.92000 274.92000 224.92000
189.92000 279.92000 184.92000
189.92000 279.92000 209.92000
189.92000 279.92000 224.92000
189.92000 279.92000 229.92000
189.92000 279.92000 284.92000
189.92000 279.92000 289.92000
189.92000 284.92000 184.92000
189.92000 284.92000 189.92000
189.92000 284.92000 214.92000
189.92000 284.92000 224.92000
189.92000 284.92000 229.92000
189.92000 284.92000 274.92000
189.92000 289.92000 189.92000
189.92000 289.92000 209.92000
189.92000 289.92000 214.92000
189.92000 289.92000 219.92000
189.92000 289.92000 224.92000
189.92000 289.92000 259.92000
189.92000 289.92000 264.92000
189.92000 294.92000 189.92000
189.92000 294.92000 214.92000
189.92000 294.92000 219.92000
189.92000 294.92000 234.92000
189.92000 294.92000 264.92000
189.92000 294.92000 269.92000
189.92000 299.92000 199.92000
189.92000 299.92000 219.92000
189.92000 304.92000 204.92000
189.92000 304.92000 214.92000
189.92000 309.92000 209.92000
194.92000 74.92000 194.92000
194.92000 74.92000 199.92000
194.92000 79.92000 179.92000
194.92000 79.92000 184.92000
194.92000 84.92000 164.92000
194.92000 84.92000 169.92000
194.92000 84.92000 194.92000
194.92000 84.92000 199.92000
194.92000 84.92000 214.92000
194.92000 89.92000 164.92000
194.92000 89.92000 174.92000
194.92000 89.92000 179.92000
194.92000 89.92000 204.92000
194.92000 89.92000 274.92000
194.92000 94.92000 164.92000
194.92000 94.92000 169.92000
194.92000 94.92000 174.92000
194.92000 94.92000 179.92000
194.92000 94.92000 194.92000
194.92000 94.92000 219.92000
194.92000 94.92000 294.92000
194.92000 99.92000 179.92000
194.92000 99.92000 184.92000
194.92000 99.92000 189.92000
194.92000 99.92000 194.92000
194.92000 99.92000 209.92000
194.92000 99.92000 269.92000
194.92000 99.92000 274.92000
194.92000 99.92000 284.92000
194.92000 104.92000 194.92000
194.92000 104.92000 204.92000
194.92000 104.92000 274.92000
194.92000 104.92000 284.92000
194.92000 104.92000 299.92000
194.92000 104.92000 309.92000
194.92000 109.92000 154.92000
194.92000 109.92000 184.92000
194.92000 109.92000 189.92000
194.92000 109.92000 194.92000
194.92000 109.92000 199.92000
194.92000 109.92000 204.92000
194.92000 109.92000 214.92000
194.92000 109.92000 289.92000
194.92000 109.92000 299.92000
194.92000 109.92000 304.92000
194.92000 114.92000 149.92000
194.92000 114.92000 154.92000
194.92000 114.92000 199.92000
194.92000 114.92000 204.92000
194.92000 114.92000 209.92000
194.92000 114.92000 214.92000
194.92000 114.92000 259.92000
194.92000 119.92000 149.92000
194.92000 119.92000 164.92000
194.92000 119.92000 169.92000
194.92000 119.92000 174.92000
194.92000 119.92000 194.92000
194.92000 119.92000 199.92000
194.92000 119.92000 204.92000
194.92000 124.92000 154.92000
194.92000 124.92000 159.92000
194.92000 124.92000 164.92000
194.92000 124.92000 184.92000
194.92000 124.92000 194.92000
194.92000 124.92000 204.92000
194.92000 124.92000 209.92000
194.92000 129.92000 154.92000
194.92000 129.92000 189.92000
194.92000 129.92000 194.92000
194.92000 134.92000 154.92000
194.92000 134.92000 194.92000
194.92000 139.92000 149.92000
194.92000 139.92000 154.92000
194.92000 144.92000 144.92000
194.92000 144.92000 154.92000
194.92000 144.92000 159.92000
194.92000 149.92000 159.92000
194.92000 149.92000 164.92000
194.92000 149.92000 169.92000
194.92000 154.92000 164.92000
194.92000 164.92000 264.92000
194.92000 164.92000 269.92000
194.92000 164.92000 274.92000
194.92000 164.92000 289.92000
194.92000 164.92000 294.92000
194.92000 169.92000 104.92000
194.92000 169.92000 259.92000
194.92000 169.92000 264.92000
194.92000 169.92000 269.92000
194.92000 169.92000 279.92000
194.92000 169.92000 284.92000
194.92000 169.92000 294.92000
194.92000 174.92000 139.92000
194.92000 174.92000 144.92000
194.92000 174.92000 259.92000
194.92000 174.92000 264.92000
194.92000 174.92000 269.92000
194.92000 174.92000 274.92000
194.92000 174.92000 299.92000
194.92000 174.92000 304.92000
194.92000 179.92000 114.92000
194.92000 179.92000 119.92000
194.92000 179.92000 124.92000
194.92000 179.92000 129.92000
194.92000 179.92000 134.92000
194.92000 179.92000 139.92000
194.92000 179.92000 144.92000
194.92000 179.92000 149.92000
194.92000 179.92000 154.92000
194.92000 179.92000 244.92000
194.92000 179.92000 249.92000
194.92000 179.92000 259.92000
194.92000 179.92000 289.92000
194.92000 179.92000 304.92000
194.92000 184.92000 114.92000
194.92000 184.92000 119.92000
194.92000 184.92000 124.92000
194.92000 184.92000 129.92000
194.92000 184.92000 134.92000
194.92000 184.92000 144.92000
194.92000 184.92000 149.92000
194.92000 184.92000 214.92000
194.92000 184.92000 234.92000
194.92000 184.92000 244.92000
194.92000 184.92000 249.92000
194.92000 184.92000 254.92000
194.92000 189.92000 104.92000
194.92000 189.92000 119.92000
194.92000 189.92000 124.92000
194.92000 189.92000 129.92000
194.92000 189.92000 134.92000
194.92000 189.92000 139.92000
194.92000 189.92000 149.92000
194.92000 189.92000 184.92000
194.92000 189.92000 214.92000
194.92000 189.92000 224.92000
194.92000 189.92000 234.92000
194.92000 189.92000 269.92000
194.92000 189.92000 274.92000
194.92000 189.92000 289.92000
194.92000 189.92000 299.92000
194.92000 194.92000 134.92000
194.92000 194.92000 139.92000
194.92000 194.92000 144.92000
194.92000 194.92000 149.92000
194.92000 194.92000 219.92000
194.92000 194.92000 289.92000
194.92000 199.92000 139.92000
194.92000 199.92000 144.92000
194.92000 199.92000 149.92000
194.92000 199.92000 154.92000
194.92000 199.92000 189.92000
194.92000 199.92000 204.92000
194.92000 199.92000 214.92000
194.92000 199.92000 229.92000
194.92000 199.92000 234.92000
194.92000 199.92000 239.92000
194.92000 199.92000 254.92000
194.92000 199.92000 274.92000
194.92000 199.92000 279.92000
194.92000 199.92000 289.92000
194.92000 199.92000 299.92000
194.92000 204.92000 169.92000
194.92000 204.92000 209.92000
194.92000 204.92000 214.92000
194.92000 204.92000 219.92000
194.92000 204.92000 229.92000
194.92000 204.92000 234.92000
194.92000 204.92000 264.92000
194.92000 204.92000 284.92000
194.92000 204.92000 299.92000
194.92000 209.92000 164.92000
194.92000 209.92000 179.92000
194.92000 209.92000 209.92000
194.92000 209.92000 239.92000
194.92000 209.92000 249.92000
194.92000 209.92000 254.92000
194.92000 209.92000 264.92000
194.92000 209.92000 299.92000
194.92000 214.92000 149.92000
194.92000 214.92000 169.92000
194.92000 214.92000 174.92000
194.92000 214.92000 209.92000
194.92000 214.92000 214.92000
194.92000 214.92000 219.92000
194.92000 214.92000 244.92000
194.92000 214.92000 259.92000
194.92000 219.92000 229.92000
194.92000 219.92000 264.92000
194.92000 219.92000 269.92000
194.92000 219.92000 274.92000
194.92000 224.92000 214.92000
194.92000 224.92000 219.92000
194.92000 224.92000 224.92000
194.92000 224.92000 284.92000
194.92000 224.92000 299.92000
194.92000 224.92000 304.92000
194.92000 229.92000 189.92000
194.92000 229.92000 244.92000
194.92000 229.92000 284.92000
194.92000 229.92000 289.92000
194.92000 234.92000 169.92000
194.92000 234.92000 174.92000
194.92000 234.92000 239.92000
194.92000 234.92000 249.92000
194.92000 234.92000 259.92000
194.92000 234.92000 269.92000
194.92000 234.92000 279.92000
194.92000 234.92000 284.92000
194.92000 234.92000 289.92000
194.92000 234.92000 294.92000
194.92000 239.92000 164.92000
194.92000 239.92000 179.92000
194.92000 239.92000 204.92000
194.92000 239.92000 224.92000
194.92000 239.92000 229.92000
194.92000 239.92000 239.92000
194.92000 239.92000 279.92000
194.92000 239.92000 289.92000
194.92000 239.92000 294.92000
194.92000 239.92000 309.92000
194.92000 244.92000 149.92000
194.92000 244.92000 159.92000
194.92000 244.92000 214.92000
194.92000 244.92000 219.92000
194.92000 244.92000 234.92000
194.92000 244.92000 254.92000
194.92000 244.92000 264.92000
194.92000 244.92000 269.92000
194.92000 244.92000 294.92000
194.92000 244.92000 299.92000
194.92000 244.92000 304.92000
194.92000 244.92000 309.92000
194.92000 249.92000 149.92000
194.92000 249.92000 159.92000
194.92000 249.92000 199.92000
194.92000 249.92000 204.92000
194.92000 249.92000 219.92000
194.92000 249.92000 224.92000
194.92000 249.92000 274.92000
194.92000 249.92000 289.92000
194.92000 254.92000 159.92000
194.92000 254.92000 164.92000
194.92000 254.92000 169.92000
194.92000 254.92000 174.92000
194.92000 254.92000 204.92000
194.92000 254.92000 209.92000
194.92000 254.92000 229.92000
194.92000 254.92000 234.92000
194.92000 254.92000 244.92000
194.92000 259.92000 214.92000
194.92000 259.92000 219.92000
194.92000 259.92000 224.92000
194.92000 259.92000 249.92000
194.92000 259.92000 284.92000
194.92000 259.92000 289.92000
194.92000 264.92000 189.92000
194.92000 264.92000 194.92000
194.92000 264.92000 204.92000
194.92000 264.92000 209.92000
194.92000 264.92000 219.92000
194.92000 264.92000 254.92000
194.92000 264.92000 269.92000
194.92000 269.92000 189.92000
194.92000 269.92000 204.92000
194.92000 269.92000 244.92000
194.92000 269.92000 259.92000
194.92000 269.92000 299.92000
194.92000 274.92000 189.92000
194.92000 274.92000 209.92000
194.92000 274.92000 214.92000
194.92000 274.92000 219.92000
194.92000 274.92000 224.92000
194.92000 274.92000 229.92000
194.92000 274.92000 234.92000
194.92000 274.92000 249.92000
194.92000 274.92000 259.92000
194.92000 274.92000 309.92000
194.92000 279.92000 184.92000
194.92000 279.92000 189.92000
194.92000 279.92000 229.92000
194.92000 279.92000 244.92000
194.92000 284.92000 179.92000
194.92000 284.92000 184.92000
194.92000 284.92000 189.92000
194.92000 284.92000 229.92000
194.92000 289.92000 214.92000
194.92000 289.92000 219.92000
194.92000 289.92000 269.92000
194.92000 289.92000 274.92000
194.92000 294.92000 219.92000
194.92000 294.92000 224.92000
194.92000 294.92000 234.92000
194.92000 299.92000 194.92000
194.92000 299.92000 234.92000
194.92000 299.92000 239.92000
194.92000 299.92000 244.92000
194.92000 304.92000 189.92000
194.92000 304.92000 194.92000
194.92000 304.92000 199.92000
194.92000 304.92000 204.92000
194.92000 304.92000 224.92000
199.92000 79.92000 194.92000
199.92000 79.92000 199.92000
199.92000 79.92000 204.92000
199.92000 84.92000 179.92000
199.92000 84.92000 204.92000
199.92000 89.92000 179.92000
199.92000 89.92000 184.92000
199.92000 89.92000 279.92000
199.92000 94.92000 169.92000
199.92000 94.92000 179.92000
199.92000 94.92000 184.92000
199.92000 94.92000 194.92000
199.92000 94.92000 209.92000
199.92000 94.92000 274.92000
199.92000 94.92000 279.92000
199.92000 94.92000 284.92000
199.92000 99.92000 164.92000
199.92000 99.92000 184.92000
199.92000 99.92000 189.92000
199.92000 99.92000 199.92000
199.92000 99.92000 204.92000
199.92000 99.92000 209.92000
199.92000 99.92000 274.92000
199.92000 99.92000 284.92000
199.92000 99.92000 309.92000
199.92000 104.92000 199.92000
199.92000 104.92000 204.92000
199.92000 104.92000 209.92000
199.92000 104.92000 219.92000
199.92000 104.92000 299.92000
199.92000 104.92000 304.92000
199.92000 109.92000 169.92000
199.92000 109.92000 174.92000
199.92000 109.92000 179.92000
199.92000 109.92000 184.92000
199.92000 109.92000 194.92000
199.92000 109.92000 204.92000
199.92000 109.92000 209.92000
199.92000 109.92000 214.92000
199.92000 109.92000 219.92000
199.92000 114.92000 164.92000
199.92000 114.92000 169.92000
199.92000 114.92000 184.92000
199.92000 114.92000 194.92000
199.92000 114.92000 199.92000
199.92000 114.92000 209.92000
199.92000 114.92000 214.92000
199.92000 114.92000 219.92000
199.92000 119.92000 164.92000
199.92000 119.92000 169.92000
199.92000 119.92000 174.92000
199.92000 119.92000 189.92000
199.92000 119.92000 194.92000
199.92000 119.92000 199.92000
199.92000 119.92000 259.92000
199.92000 119.92000 264.92000
199.92000 124.92000 169.92000
199.92000 124.92000 179.92000
199.92000 124.92000 184.92000
199.92000 124.92000 189.92000
199.92000 124.92000 194.92000
199.92000 124.92000 199.92000
199.92000 124.92000 204.92000
199.92000 124.92000 214.92000
199.92000 124.92000 219.92000
199.92000 129.92000 154.92000
199.92000 129.92000 189.92000
199.92000 129.92000 194.92000
199.92000 129.92000 199.92000
199.92000 134.92000 189.92000
199.92000 134.92000 199.92000
199.92000 139.92000 149.92000
199.92000 139.92000 154.92000
199.92000 139.92000 159.92000
199.92000 144.92000 144.92000
199.92000 144.92000 169.92000
199.92000 149.92000 154.92000
199.92000 149.92000 169.92000
199.92000 154.92000 169.92000
199.92000 159.92000 159.92000
199.92000 159.92000 264.92000
199.92000 159.92000 284.92000
199.92000 164.92000 269.92000
199.92000 164.92000 274.92000
199.92000 164.92000 299.92000
199.92000 169.92000 109.92000
199.92000 169.92000 264.92000
199.92000 169.92000 269.92000
199.92000 169.92000 274.92000
199.92000 169.92000 299.92000
199.92000 174.92000 224.92000
199.92000 174.92000 249.92000
199.92000 174.92000 254.92000
199.92000 174.92000 264.92000
199.92000 174.92000 274.92000
199.92000 174.92000 279.92000
199.92000 174.92000 289.92000
199.92000 174.92000 299.92000
199.92000 174.92000 304.92000
199.92000 179.92000 109.92000
199.92000 179.92000 114.92000
199.92000 179.92000 119.92000
199.92000 179.92000 124.92000
199.92000 179.92000 129.92000
199.92000 179.92000 134.92000
199.92000 179.92000 214.92000
199.92000 179.92000 219.92000
199.92000 179.92000 224.92000
199.92000 179.92000 294.92000
199.92000 184.92000 124.92000
199.92000 184.92000 129.92000
199.92000 184.92000 134.92000
199.92000 184.92000 139.92000
199.92000 184.92000 154.92000
199.92000 184.92000 244.92000
199.92000 184.92000 249.92000
199.92000 184.92000 294.92000
199.92000 184.92000 299.92000
199.92000 189.92000 119.92000
199.92000 189.92000 124.92000
199.92000 189.92000 139.92000
199.92000 189.92000 144.92000
199.92000 189.92000 149.92000
199.92000 189.92000 154.92000
199.92000 189.92000 184.92000
199.92000 189.92000 259.92000
199.92000 189.92000 269.92000
199.92000 189.92000 274.92000
199.92000 189.92000 279.92000
199.92000 189.92000 304.92000
199.92000 194.92000 109.92000
199.92000 194.92000 134.92000
199.92000 194.92000 149.92000
199.92000 194.92000 179.92000
199.92000 194.92000 184.92000
199.92000 194.92000 194.92000
199.92000 194.92000 204.92000
199.92000 194.92000 214.92000
199.92000 194.92000 219.92000
199.92000 194.92000 229.92000
199.92000 194.92000 249.92000
199.92000 194.92000 264.92000
199.92000 194.92000 274.92000
199.92000 194.92000 279.92000
199.92000 194.92000 289.92000
199.92000 199.92000 139.92000
199.92000 199.92000 144.92000
199.92000 199.92000 149.92000
199.92000 199.92000 159.92000
199.92000 199.92000 189.92000
199.92000 199.92000 194.92000
199.92000 199.92000 234.92000
199.92000 199.92000 239.92000
199.92000 199.92000 244.92000
199.92000 199.92000 249.92000
199.92000 199.92000 254.92000
199.92000 204.92000 144.92000
199.92000 204.92000 149.92000
199.92000 204.92000 159.92000
199.92000 204.92000 174.92000
199.92000 204.92000 224.92000
199.92000 204.92000 259.92000
199.92000 204.92000 274.92000
199.92000 204.92000 279.92000
199.92000 204.92000 294.92000
199.92000 209.92000 249.92000
199.92000 209.92000 254.92000
199.92000 209.92000 274.92000
199.92000 209.92000 294.92000
199.92000 214.92000 154.92000
199.92000 214.92000 159.92000
199.92000 214.92000 164.92000
199.92000 214.92000 184.92000
199.92000 214.92000 214.92000
199.92000 214.92000 219.92000
199.92000 214.92000 244.92000
199.92000 214.92000 259.92000
199.92000 214.92000 269.92000
199.92000 214.92000 274.92000
199.92000 214.92000 279.92000
199.92000 214.92000 284.92000
199.92000 214.92000 289.92000
199.92000 219.92000 209.92000
199.92000 219.92000 249.92000
199.92000 219.92000 254.92000
199.92000 219.92000 259.92000
199.92000 219.92000 264.92000
199.92000 219.92000 269.92000
199.92000 219.92000 274.92000
199.92000 219.92000 279.92000
199.92000 224.92000 139.92000
199.92000 224.92000 144.92000
199.92000 224.92000 149.92000
199.92000 224.92000 219.92000
199.92000 224.92000 229.92000
199.92000 224.92000 264.92000
199.92000 224.92000 289.92000
199.92000 229.92000 149.92000
199.92000 229.92000 279.92000
199.92000 229.92000 284.92000
199.92000 229.92000 289.92000
199.92000 229.92000 294.92000
199.92000 234.92000 139.92000
199.92000 234.92000 159.92000
199.92000 234.92000 209.92000
199.92000 234.92000 244.92000
199.92000 234.92000 279.92000
199.92000 234.92000 284.92000
199.92000 234.92000 299.92000
199.92000 234.92000 304.92000
199.92000 239.92000 154.92000
199.92000 239.92000 159.92000
199.92000 239.92000 169.92000
199.92000 239.92000 209.92000
199.92000 239.92000 224.92000
199.92000 239.92000 234.92000
199.92000 239.92000 249.92000
199.92000 239.92000 254.92000
199.92000 239.92000 259.92000
199.92000 239.92000 269.92000
199.92000 239.92000 284.92000
199.92000 239.92000 294.92000
199.92000 239.92000 314.92000
199.92000 244.92000 159.92000
199.92000 244.92000 164.92000
199.92000 244.92000 179.92000
