ply
format ascii 1.0
comment Created by Open3D
element vertex 1400
property float x
property float y
property float z
end_header
162.919998 167.919998 192.919998
162.919998 172.919998 102.91999799999999
162.919998 172.919998 107.91999799999999
162.919998 172.919998 117.91999799999999
162.919998 172.919998 122.91999799999999
162.919998 172.919998 137.919998
162.919998 172.919998 152.919998
162.919998 172.919998 167.919998
162.919998 172.919998 182.919998
162.919998 172.919998 187.919998
162.919998 172.919998 192.919998
162.919998 172.919998 197.919998
162.919998 177.919998 112.91999799999999
162.919998 177.919998 117.91999799999999
162.919998 177.919998 127.91999799999999
162.919998 177.919998 132.919998
162.919998 177.919998 137.919998
162.919998 177.919998 142.919998
162.919998 177.919998 162.919998
162.919998 177.919998 167.919998
162.919998 177.919998 177.919998
162.919998 177.919998 182.919998
162.919998 177.919998 187.919998
162.919998 177.919998 192.919998
162.919998 182.919998 107.91999799999999
162.919998 182.919998 117.91999799999999
162.919998 182.919998 122.91999799999999
162.919998 182.919998 142.919998
162.919998 182.919998 162.919998
162.919998 182.919998 167.919998
162.919998 182.919998 177.919998
162.919998 182.919998 187.919998
162.919998 182.919998 202.919998
162.919998 187.919998 142.919998
162.919998 187.919998 152.919998
162.919998 187.919998 167.919998
162.919998 187.919998 187.919998
162.919998 187.919998 192.919998
162.919998 187.919998 197.919998
162.919998 187.919998 202.919998
162.919998 187.919998 212.919998
162.919998 187.919998 217.919998
162.919998 192.919998 117.91999799999999
162.919998 192.919998 127.91999799999999
162.919998 192.919998 142.919998
162.919998 192.919998 147.919998
162.919998 192.919998 152.919998
162.919998 192.919998 167.919998
162.919998 192.919998 187.919998
162.919998 192.919998 197.919998
162.919998 192.919998 202.919998
162.919998 192.919998 212.919998
162.919998 197.919998 117.91999799999999
162.919998 197.919998 122.91999799999999
162.919998 197.919998 127.91999799999999
162.919998 197.919998 132.919998
162.919998 197.919998 142.919998
162.919998 197.919998 147.919998
162.919998 197.919998 162.919998
162.919998 197.919998 167.919998
162.919998 197.919998 172.919998
162.919998 197.919998 187.919998
162.919998 197.919998 197.919998
162.919998 197.919998 207.919998
162.919998 197.919998 217.919998
162.919998 197.919998 227.919998
162.919998 197.919998 232.919998
162.919998 197.919998 237.919998
162.919998 202.919998 117.91999799999999
162.919998 202.919998 122.91999799999999
162.919998 202.919998 127.91999799999999
162.919998 202.919998 132.919998
162.919998 202.919998 137.919998
162.919998 202.919998 142.919998
162.919998 202.919998 147.919998
162.919998 202.919998 152.919998
162.919998 202.919998 157.919998
162.919998 202.919998 162.919998
162.919998 202.919998 167.919998
162.919998 202.919998 172.919998
162.919998 202.919998 182.919998
162.919998 202.919998 192.919998
162.919998 202.919998 212.919998
162.919998 202.919998 222.919998
162.919998 202.919998 237.919998
162.919998 207.919998 122.91999799999999
162.919998 207.919998 127.91999799999999
162.919998 207.919998 132.919998
162.919998 207.919998 137.919998
162.919998 207.919998 142.919998
162.919998 207.919998 152.919998
162.919998 207.919998 157.919998
162.919998 207.919998 162.919998
162.919998 207.919998 167.919998
162.919998 207.919998 172.919998
162.919998 207.919998 202.919998
162.919998 207.919998 212.919998
162.919998 207.919998 217.919998
162.919998 207.919998 222.919998
162.919998 212.919998 127.91999799999999
162.919998 212.919998 132.919998
162.919998 212.919998 137.919998
162.919998 212.919998 157.919998
162.919998 212.919998 162.919998
162.919998 212.919998 192.919998
162.919998 212.919998 197.919998
162.919998 212.919998 202.919998
162.919998 212.919998 212.919998
162.919998 212.919998 217.919998
162.919998 212.919998 222.919998
162.919998 212.919998 227.919998
162.919998 217.919998 192.919998
162.919998 217.919998 197.919998
162.919998 217.919998 222.919998
167.919998 107.91999799999999 177.919998
167.919998 107.91999799999999 182.919998
167.919998 112.91999799999999 147.919998
167.919998 117.91999799999999 147.919998
167.919998 122.91999799999999 142.919998
167.919998 122.91999799999999 147.919998
167.919998 122.91999799999999 162.919998
167.919998 127.91999799999999 142.919998
167.919998 127.91999799999999 167.919998
167.919998 127.91999799999999 172.919998
167.919998 127.91999799999999 182.919998
167.919998 132.919998 167.919998
167.919998 132.919998 172.919998
167.919998 137.919998 167.919998
167.919998 137.919998 187.919998
167.919998 137.919998 192.919998
167.919998 137.919998 197.919998
167.919998 137.919998 202.919998
167.919998 142.919998 127.91999799999999
167.919998 142.919998 132.919998
167.919998 142.919998 167.919998
167.919998 142.919998 187.919998
167.919998 142.919998 192.919998
167.919998 147.919998 132.919998
167.919998 147.919998 137.919998
167.919998 147.919998 142.919998
167.919998 147.919998 152.919998
167.919998 147.919998 157.919998
167.919998 147.919998 212.919998
167.919998 147.919998 227.919998
167.919998 152.919998 152.919998
167.919998 152.919998 157.919998
167.919998 152.919998 167.919998
167.919998 152.919998 172.919998
167.919998 152.919998 192.919998
167.919998 152.919998 197.919998
167.919998 152.919998 202.919998
167.919998 152.919998 207.919998
167.919998 152.919998 212.919998
167.919998 152.919998 217.919998
167.919998 152.919998 222.919998
167.919998 157.919998 132.919998
167.919998 157.919998 137.919998
167.919998 157.919998 152.919998
167.919998 157.919998 167.919998
167.919998 157.919998 172.919998
167.919998 157.919998 187.919998
167.919998 157.919998 202.919998
167.919998 157.919998 207.919998
167.919998 157.919998 212.919998
167.919998 157.919998 217.919998
167.919998 157.919998 222.919998
167.919998 162.919998 112.91999799999999
167.919998 162.919998 117.91999799999999
167.919998 162.919998 137.919998
167.919998 162.919998 157.919998
167.919998 162.919998 177.919998
167.919998 162.919998 192.919998
167.919998 162.919998 197.919998
167.919998 167.919998 112.91999799999999
167.919998 167.919998 127.91999799999999
167.919998 167.919998 137.919998
167.919998 167.919998 157.919998
167.919998 167.919998 162.919998
167.919998 167.919998 167.919998
167.919998 167.919998 177.919998
167.919998 167.919998 192.919998
167.919998 167.919998 217.919998
167.919998 172.919998 102.91999799999999
167.919998 172.919998 107.91999799999999
167.919998 172.919998 112.91999799999999
167.919998 172.919998 117.91999799999999
167.919998 172.919998 142.919998
167.919998 172.919998 152.919998
167.919998 172.919998 157.919998
167.919998 172.919998 167.919998
167.919998 172.919998 172.919998
167.919998 172.919998 177.919998
167.919998 172.919998 182.919998
167.919998 172.919998 187.919998
167.919998 172.919998 192.919998
167.919998 172.919998 217.919998
167.919998 177.919998 107.91999799999999
167.919998 177.919998 117.91999799999999
167.919998 177.919998 127.91999799999999
167.919998 177.919998 132.919998
167.919998 177.919998 137.919998
167.919998 177.919998 167.919998
167.919998 177.919998 177.919998
167.919998 177.919998 207.919998
167.919998 177.919998 212.919998
167.919998 177.919998 217.919998
167.919998 182.919998 107.91999799999999
167.919998 182.919998 132.919998
167.919998 182.919998 137.919998
167.919998 182.919998 147.919998
167.919998 182.919998 152.919998
167.919998 182.919998 157.919998
167.919998 182.919998 162.919998
167.919998 182.919998 167.919998
167.919998 182.919998 172.919998
167.919998 182.919998 177.919998
167.919998 182.919998 197.919998
167.919998 182.919998 202.919998
167.919998 182.919998 207.919998
167.919998 182.919998 212.919998
167.919998 182.919998 222.919998
167.919998 187.919998 117.91999799999999
167.919998 187.919998 122.91999799999999
167.919998 187.919998 142.919998
167.919998 187.919998 147.919998
167.919998 187.919998 202.919998
167.919998 187.919998 207.919998
167.919998 187.919998 212.919998
167.919998 187.919998 217.919998
167.919998 192.919998 127.91999799999999
167.919998 192.919998 132.919998
167.919998 192.919998 137.919998
167.919998 192.919998 142.919998
167.919998 192.919998 147.919998
167.919998 192.919998 152.919998
167.919998 192.919998 157.919998
167.919998 192.919998 167.919998
167.919998 192.919998 187.919998
167.919998 192.919998 197.919998
167.919998 192.919998 202.919998
167.919998 192.919998 207.919998
167.919998 192.919998 222.919998
167.919998 192.919998 227.919998
167.919998 197.919998 117.91999799999999
167.919998 197.919998 127.91999799999999
167.919998 197.919998 132.919998
167.919998 197.919998 137.919998
167.919998 197.919998 142.919998
167.919998 197.919998 147.919998
167.919998 197.919998 152.919998
167.919998 197.919998 157.919998
167.919998 197.919998 167.919998
167.919998 197.919998 172.919998
167.919998 197.919998 187.919998
167.919998 197.919998 192.919998
167.919998 197.919998 197.919998
167.919998 197.919998 202.919998
167.919998 197.919998 207.919998
167.919998 197.919998 212.919998
167.919998 197.919998 222.919998
167.919998 197.919998 227.919998
167.919998 197.919998 237.919998
167.919998 202.919998 117.91999799999999
167.919998 202.919998 122.91999799999999
167.919998 202.919998 127.91999799999999
167.919998 202.919998 132.919998
167.919998 202.919998 137.919998
167.919998 202.919998 147.919998
167.919998 202.919998 152.919998
167.919998 202.919998 157.919998
167.919998 202.919998 162.919998
167.919998 202.919998 167.919998
167.919998 202.919998 172.919998
167.919998 202.919998 177.919998
167.919998 202.919998 212.919998
167.919998 202.919998 232.919998
167.919998 202.919998 237.919998
167.919998 207.919998 122.91999799999999
167.919998 207.919998 127.91999799999999
167.919998 207.919998 132.919998
167.919998 207.919998 137.919998
167.919998 207.919998 142.919998
167.919998 207.919998 147.919998
167.919998 207.919998 152.919998
167.919998 207.919998 157.919998
167.919998 207.919998 162.919998
167.919998 207.919998 167.919998
167.919998 207.919998 172.919998
167.919998 207.919998 187.919998
167.919998 207.919998 202.919998
167.919998 207.919998 232.919998
167.919998 212.919998 137.919998
167.919998 212.919998 157.919998
167.919998 212.919998 197.919998
167.919998 212.919998 202.919998
167.919998 212.919998 212.919998
167.919998 212.919998 217.919998
167.919998 212.919998 227.919998
167.919998 217.919998 207.919998
167.919998 217.919998 212.919998
167.919998 217.919998 222.919998
172.919998 112.91999799999999 162.919998
172.919998 112.91999799999999 202.919998
172.919998 117.91999799999999 147.919998
172.919998 117.91999799999999 152.919998
172.919998 117.91999799999999 162.919998
172.919998 117.91999799999999 172.919998
172.919998 117.91999799999999 202.919998
172.919998 122.91999799999999 147.919998
172.919998 122.91999799999999 152.919998
172.919998 122.91999799999999 157.919998
172.919998 122.91999799999999 162.919998
172.919998 122.91999799999999 167.919998
172.919998 127.91999799999999 147.919998
172.919998 127.91999799999999 152.919998
172.919998 127.91999799999999 157.919998
172.919998 127.91999799999999 162.919998
172.919998 127.91999799999999 187.919998
172.919998 127.91999799999999 192.919998
172.919998 132.919998 152.919998
172.919998 132.919998 167.919998
172.919998 132.919998 177.919998
172.919998 132.919998 182.919998
172.919998 132.919998 187.919998
172.919998 132.919998 192.919998
172.919998 137.919998 167.919998
172.919998 137.919998 192.919998
172.919998 137.919998 197.919998
172.919998 137.919998 202.919998
172.919998 142.919998 172.919998
172.919998 142.919998 182.919998
172.919998 142.919998 187.919998
172.919998 142.919998 192.919998
172.919998 142.919998 217.919998
172.919998 142.919998 222.919998
172.919998 147.919998 162.919998
172.919998 147.919998 167.919998
172.919998 147.919998 187.919998
172.919998 147.919998 207.919998
172.919998 147.919998 212.919998
172.919998 147.919998 217.919998
172.919998 147.919998 222.919998
172.919998 147.919998 227.919998
172.919998 147.919998 232.919998
172.919998 152.919998 142.919998
172.919998 152.919998 152.919998
172.919998 152.919998 157.919998
172.919998 152.919998 162.919998
172.919998 152.919998 167.919998
172.919998 152.919998 182.919998
172.919998 152.919998 187.919998
172.919998 152.919998 202.919998
172.919998 152.919998 212.919998
172.919998 152.919998 217.919998
172.919998 157.919998 132.919998
172.919998 157.919998 142.919998
172.919998 157.919998 147.919998
172.919998 157.919998 152.919998
172.919998 157.919998 157.919998
172.919998 157.919998 162.919998
172.919998 157.919998 172.919998
172.919998 157.919998 177.919998
172.919998 157.919998 182.919998
172.919998 157.919998 197.919998
172.919998 157.919998 212.919998
172.919998 157.919998 217.919998
172.919998 157.919998 227.919998
172.919998 162.919998 117.91999799999999
172.919998 162.919998 122.91999799999999
172.919998 162.919998 132.919998
172.919998 162.919998 152.919998
172.919998 162.919998 162.919998
172.919998 162.919998 167.919998
172.919998 162.919998 202.919998
172.919998 162.919998 207.919998
172.919998 162.919998 212.919998
172.919998 162.919998 227.919998
172.919998 167.919998 112.91999799999999
172.919998 167.919998 117.91999799999999
172.919998 167.919998 127.91999799999999
172.919998 167.919998 132.919998
172.919998 167.919998 142.919998
172.919998 167.919998 147.919998
172.919998 167.919998 172.919998
172.919998 167.919998 177.919998
172.919998 167.919998 182.919998
172.919998 167.919998 212.919998
172.919998 167.919998 217.919998
172.919998 172.919998 112.91999799999999
172.919998 172.919998 137.919998
172.919998 172.919998 142.919998
172.919998 172.919998 157.919998
172.919998 172.919998 162.919998
172.919998 172.919998 167.919998
172.919998 172.919998 172.919998
172.919998 172.919998 177.919998
172.919998 172.919998 182.919998
172.919998 172.919998 212.919998
172.919998 172.919998 217.919998
172.919998 172.919998 222.919998
172.919998 172.919998 227.919998
172.919998 177.919998 112.91999799999999
172.919998 177.919998 132.919998
172.919998 177.919998 137.919998
172.919998 177.919998 142.919998
172.919998 177.919998 147.919998
172.919998 177.919998 152.919998
172.919998 177.919998 162.919998
172.919998 177.919998 167.919998
172.919998 177.919998 177.919998
172.919998 177.919998 202.919998
172.919998 177.919998 207.919998
172.919998 177.919998 212.919998
172.919998 177.919998 227.919998
172.919998 182.919998 112.91999799999999
172.919998 182.919998 117.91999799999999
172.919998 182.919998 137.919998
172.919998 182.919998 142.919998
172.919998 182.919998 147.919998
172.919998 182.919998 152.919998
172.919998 182.919998 157.919998
172.919998 182.919998 197.919998
172.919998 182.919998 202.919998
172.919998 182.919998 207.919998
172.919998 182.919998 217.919998
172.919998 187.919998 132.919998
172.919998 187.919998 137.919998
172.919998 187.919998 147.919998
172.919998 187.919998 157.919998
172.919998 187.919998 167.919998
172.919998 187.919998 197.919998
172.919998 187.919998 202.919998
172.919998 187.919998 207.919998
172.919998 192.919998 117.91999799999999
172.919998 192.919998 137.919998
172.919998 192.919998 147.919998
172.919998 192.919998 152.919998
172.919998 192.919998 157.919998
172.919998 192.919998 162.919998
172.919998 192.919998 167.919998
172.919998 192.919998 202.919998
172.919998 192.919998 207.919998
172.919998 197.919998 122.91999799999999
172.919998 197.919998 127.91999799999999
172.919998 197.919998 132.919998
172.919998 197.919998 137.919998
172.919998 197.919998 147.919998
172.919998 197.919998 152.919998
172.919998 197.919998 157.919998
172.919998 197.919998 207.919998
172.919998 197.919998 212.919998
172.919998 197.919998 222.919998
172.919998 202.919998 122.91999799999999
172.919998 202.919998 132.919998
172.919998 202.919998 142.919998
172.919998 202.919998 147.919998
172.919998 202.919998 157.919998
172.919998 202.919998 162.919998
172.919998 202.919998 197.919998
172.919998 202.919998 202.919998
172.919998 202.919998 207.919998
172.919998 202.919998 217.919998
172.919998 202.919998 222.919998
172.919998 202.919998 232.919998
172.919998 207.919998 117.91999799999999
172.919998 207.919998 132.919998
172.919998 207.919998 137.919998
172.919998 207.919998 142.919998
172.919998 207.919998 147.919998
172.919998 207.919998 162.919998
172.919998 207.919998 167.919998
172.919998 207.919998 172.919998
172.919998 207.919998 212.919998
172.919998 207.919998 217.919998
172.919998 212.919998 137.919998
172.919998 212.919998 142.919998
172.919998 212.919998 147.919998
172.919998 212.919998 162.919998
172.919998 212.919998 207.919998
172.919998 212.919998 212.919998
172.919998 212.919998 227.919998
172.919998 217.919998 142.919998
172.919998 217.919998 147.919998
172.919998 217.919998 207.919998
172.919998 217.919998 222.919998
172.919998 217.919998 227.919998
172.919998 227.919998 167.919998
172.919998 232.919998 167.919998
172.919998 232.919998 172.919998
172.919998 237.919998 167.919998
172.919998 237.919998 172.919998
172.919998 242.919998 152.919998
172.919998 242.919998 167.919998
172.919998 242.919998 172.919998
172.919998 247.919998 152.919998
172.919998 247.919998 162.919998
172.919998 247.919998 167.919998
172.919998 247.919998 187.919998
172.919998 252.919998 152.919998
172.919998 252.919998 162.919998
172.919998 252.919998 167.919998
172.919998 252.919998 187.919998
172.919998 257.919998 177.919998
177.919998 107.91999799999999 172.919998
177.919998 107.91999799999999 187.919998
177.919998 107.91999799999999 192.919998
177.919998 107.91999799999999 197.919998
177.919998 107.91999799999999 202.919998
177.919998 112.91999799999999 162.919998
177.919998 112.91999799999999 167.919998
177.919998 112.91999799999999 172.919998
177.919998 112.91999799999999 182.919998
177.919998 112.91999799999999 187.919998
177.919998 112.91999799999999 192.919998
177.919998 112.91999799999999 202.919998
177.919998 117.91999799999999 152.919998
177.919998 117.91999799999999 157.919998
177.919998 117.91999799999999 162.919998
177.919998 117.91999799999999 167.919998
177.919998 117.91999799999999 187.919998
177.919998 117.91999799999999 192.919998
177.919998 122.91999799999999 157.919998
177.919998 122.91999799999999 162.919998
177.919998 122.91999799999999 167.919998
177.919998 122.91999799999999 172.919998
177.919998 122.91999799999999 192.919998
177.919998 122.91999799999999 197.919998
177.919998 127.91999799999999 147.919998
177.919998 127.91999799999999 167.919998
177.919998 127.91999799999999 177.919998
177.919998 132.919998 157.919998
177.919998 132.919998 162.919998
177.919998 132.919998 172.919998
177.919998 132.919998 177.919998
177.919998 132.919998 182.919998
177.919998 132.919998 187.919998
177.919998 132.919998 192.919998
177.919998 132.919998 217.919998
177.919998 137.919998 152.919998
177.919998 137.919998 162.919998
177.919998 137.919998 167.919998
177.919998 137.919998 177.919998
177.919998 137.919998 187.919998
177.919998 137.919998 192.919998
177.919998 137.919998 197.919998
177.919998 142.919998 182.919998
177.919998 142.919998 197.919998
177.919998 142.919998 202.919998
177.919998 142.919998 207.919998
177.919998 142.919998 222.919998
177.919998 147.919998 182.919998
177.919998 147.919998 192.919998
177.919998 147.919998 197.919998
177.919998 147.919998 202.919998
177.919998 147.919998 207.919998
177.919998 147.919998 222.919998
177.919998 147.919998 227.919998
177.919998 147.919998 232.919998
177.919998 152.919998 162.919998
177.919998 152.919998 167.919998
177.919998 152.919998 172.919998
177.919998 152.919998 177.919998
177.919998 152.919998 187.919998
177.919998 152.919998 192.919998
177.919998 152.919998 197.919998
177.919998 152.919998 202.919998
177.919998 152.919998 222.919998
177.919998 152.919998 227.919998
177.919998 152.919998 232.919998
177.919998 157.919998 137.919998
177.919998 157.919998 142.919998
177.919998 157.919998 162.919998
177.919998 157.919998 172.919998
177.919998 157.919998 182.919998
177.919998 157.919998 187.919998
177.919998 157.919998 197.919998
177.919998 157.919998 202.919998
177.919998 157.919998 207.919998
177.919998 157.919998 212.919998
177.919998 157.919998 217.919998
177.919998 157.919998 222.919998
177.919998 157.919998 232.919998
177.919998 162.919998 142.919998
177.919998 162.919998 147.919998
177.919998 162.919998 157.919998
177.919998 162.919998 172.919998
177.919998 162.919998 177.919998
177.919998 162.919998 182.919998
177.919998 162.919998 187.919998
177.919998 162.919998 202.919998
177.919998 162.919998 207.919998
177.919998 162.919998 222.919998
177.919998 162.919998 227.919998
177.919998 167.919998 122.91999799999999
177.919998 167.919998 147.919998
177.919998 167.919998 152.919998
177.919998 167.919998 157.919998
177.919998 167.919998 172.919998
177.919998 167.919998 182.919998
177.919998 167.919998 202.919998
177.919998 167.919998 207.919998
177.919998 167.919998 212.919998
177.919998 167.919998 222.919998
177.919998 167.919998 227.919998
177.919998 167.919998 232.919998
177.919998 172.919998 122.91999799999999
177.919998 172.919998 127.91999799999999
177.919998 172.919998 132.919998
177.919998 172.919998 137.919998
177.919998 172.919998 157.919998
177.919998 172.919998 172.919998
177.919998 172.919998 177.919998
177.919998 172.919998 182.919998
177.919998 172.919998 212.919998
177.919998 172.919998 217.919998
177.919998 172.919998 227.919998
177.919998 177.919998 142.919998
177.919998 177.919998 147.919998
177.919998 177.919998 162.919998
177.919998 177.919998 207.919998
177.919998 177.919998 212.919998
177.919998 177.919998 217.919998
177.919998 177.919998 227.919998
177.919998 177.919998 232.919998
177.919998 182.919998 147.919998
177.919998 182.919998 167.919998
177.919998 182.919998 172.919998
177.919998 182.919998 177.919998
177.919998 182.919998 197.919998
177.919998 182.919998 202.919998
177.919998 182.919998 217.919998
177.919998 182.919998 222.919998
177.919998 182.919998 232.919998
177.919998 187.919998 187.919998
177.919998 187.919998 192.919998
177.919998 187.919998 202.919998
177.919998 187.919998 207.919998
177.919998 187.919998 212.919998
177.919998 187.919998 217.919998
177.919998 187.919998 222.919998
177.919998 192.919998 127.91999799999999
177.919998 192.919998 132.919998
177.919998 192.919998 142.919998
177.919998 192.919998 202.919998
177.919998 192.919998 207.919998
177.919998 192.919998 212.919998
177.919998 192.919998 217.919998
177.919998 192.919998 222.919998
177.919998 197.919998 142.919998
177.919998 197.919998 197.919998
177.919998 197.919998 202.919998
177.919998 197.919998 217.919998
177.919998 202.919998 202.919998
177.919998 202.919998 207.919998
177.919998 202.919998 212.919998
177.919998 207.919998 162.919998
177.919998 207.919998 207.919998
177.919998 207.919998 227.919998
177.919998 212.919998 132.919998
177.919998 212.919998 137.919998
177.919998 212.919998 142.919998
177.919998 212.919998 147.919998
177.919998 212.919998 217.919998
177.919998 217.919998 137.919998
177.919998 217.919998 142.919998
177.919998 217.919998 212.919998
177.919998 217.919998 217.919998
177.919998 217.919998 222.919998
177.919998 222.919998 167.919998
177.919998 222.919998 172.919998
177.919998 227.919998 167.919998
177.919998 227.919998 172.919998
177.919998 232.919998 167.919998
177.919998 232.919998 172.919998
177.919998 232.919998 202.919998
177.919998 237.919998 152.919998
177.919998 237.919998 157.919998
177.919998 237.919998 162.919998
177.919998 237.919998 167.919998
177.919998 237.919998 172.919998
177.919998 237.919998 192.919998
177.919998 237.919998 197.919998
177.919998 237.919998 202.919998
177.919998 237.919998 207.919998
177.919998 242.919998 152.919998
177.919998 242.919998 157.919998
177.919998 242.919998 162.919998
177.919998 242.919998 167.919998
177.919998 242.919998 172.919998
177.919998 242.919998 187.919998
177.919998 242.919998 192.919998
177.919998 242.919998 197.919998
177.919998 242.919998 202.919998
177.919998 242.919998 207.919998
177.919998 247.919998 152.919998
177.919998 247.919998 157.919998
177.919998 247.919998 162.919998
177.919998 247.919998 172.919998
177.919998 247.919998 177.919998
177.919998 247.919998 187.919998
177.919998 247.919998 192.919998
177.919998 247.919998 197.919998
177.919998 252.919998 147.919998
177.919998 252.919998 152.919998
177.919998 252.919998 157.919998
177.919998 252.919998 167.919998
177.919998 252.919998 172.919998
177.919998 252.919998 177.919998
177.919998 252.919998 182.919998
177.919998 252.919998 187.919998
177.919998 252.919998 192.919998
177.919998 257.919998 152.919998
177.919998 257.919998 157.919998
177.919998 257.919998 167.919998
177.919998 257.919998 172.919998
177.919998 257.919998 177.919998
177.919998 257.919998 182.919998
177.919998 257.919998 192.919998
177.919998 257.919998 197.919998
177.919998 262.919998 192.919998
177.919998 262.919998 197.919998
177.919998 267.919998 192.919998
177.919998 282.919998 192.919998
182.919998 107.91999799999999 162.919998
182.919998 107.91999799999999 172.919998
182.919998 107.91999799999999 177.919998
182.919998 107.91999799999999 187.919998
182.919998 107.91999799999999 192.919998
182.919998 107.91999799999999 202.919998
182.919998 112.91999799999999 162.919998
182.919998 112.91999799999999 167.919998
182.919998 112.91999799999999 172.919998
182.919998 117.91999799999999 152.919998
182.919998 117.91999799999999 157.919998
182.919998 117.91999799999999 187.919998
182.919998 117.91999799999999 192.919998
182.919998 117.91999799999999 207.919998
182.919998 122.91999799999999 152.919998
182.919998 122.91999799999999 157.919998
182.919998 122.91999799999999 182.919998
182.919998 122.91999799999999 192.919998
182.919998 122.91999799999999 197.919998
182.919998 122.91999799999999 207.919998
182.919998 122.91999799999999 212.919998
182.919998 127.91999799999999 142.919998
182.919998 127.91999799999999 157.919998
182.919998 127.91999799999999 167.919998
182.919998 127.91999799999999 172.919998
182.919998 127.91999799999999 177.919998
182.919998 127.91999799999999 182.919998
182.919998 127.91999799999999 197.919998
182.919998 127.91999799999999 202.919998
182.919998 127.91999799999999 212.919998
182.919998 127.91999799999999 217.919998
182.919998 132.919998 142.919998
182.919998 132.919998 147.919998
182.919998 132.919998 157.919998
182.919998 132.919998 182.919998
182.919998 132.919998 192.919998
182.919998 132.919998 202.919998
182.919998 132.919998 207.919998
182.919998 132.919998 217.919998
182.919998 137.919998 147.919998
182.919998 137.919998 162.919998
182.919998 137.919998 167.919998
182.919998 137.919998 172.919998
182.919998 137.919998 177.919998
182.919998 137.919998 187.919998
182.919998 137.919998 197.919998
182.919998 137.919998 212.919998
182.919998 137.919998 217.919998
182.919998 142.919998 147.919998
182.919998 142.919998 177.919998
182.919998 142.919998 182.919998
182.919998 142.919998 197.919998
182.919998 142.919998 202.919998
182.919998 142.919998 207.919998
182.919998 142.919998 222.919998
182.919998 147.919998 182.919998
182.919998 147.919998 187.919998
182.919998 147.919998 192.919998
182.919998 147.919998 197.919998
182.919998 147.919998 207.919998
182.919998 147.919998 222.919998
182.919998 147.919998 227.919998
182.919998 152.919998 147.919998
182.919998 152.919998 177.919998
182.919998 152.919998 182.919998
182.919998 152.919998 187.919998
182.919998 152.919998 197.919998
182.919998 152.919998 202.919998
182.919998 152.919998 207.919998
182.919998 152.919998 212.919998
182.919998 152.919998 222.919998
182.919998 152.919998 227.919998
182.919998 152.919998 232.919998
182.919998 157.919998 142.919998
182.919998 157.919998 147.919998
182.919998 157.919998 152.919998
182.919998 157.919998 172.919998
182.919998 157.919998 177.919998
182.919998 157.919998 182.919998
182.919998 157.919998 197.919998
182.919998 157.919998 202.919998
182.919998 157.919998 207.919998
182.919998 157.919998 212.919998
182.919998 157.919998 222.919998
182.919998 157.919998 232.919998
182.919998 162.919998 142.919998
182.919998 162.919998 157.919998
182.919998 162.919998 162.919998
182.919998 162.919998 187.919998
182.919998 162.919998 197.919998
182.919998 162.919998 207.919998
182.919998 162.919998 212.919998
182.919998 162.919998 222.919998
182.919998 162.919998 227.919998
182.919998 167.919998 162.919998
182.919998 167.919998 167.919998
182.919998 167.919998 172.919998
182.919998 167.919998 177.919998
182.919998 167.919998 182.919998
182.919998 167.919998 187.919998
182.919998 167.919998 197.919998
182.919998 167.919998 202.919998
182.919998 167.919998 212.919998
182.919998 167.919998 217.919998
182.919998 167.919998 222.919998
182.919998 167.919998 227.919998
182.919998 167.919998 232.919998
182.919998 172.919998 152.919998
182.919998 172.919998 162.919998
182.919998 172.919998 172.919998
182.919998 172.919998 177.919998
182.919998 172.919998 182.919998
182.919998 172.919998 197.919998
182.919998 172.919998 202.919998
182.919998 172.919998 212.919998
182.919998 172.919998 217.919998
182.919998 172.919998 222.919998
182.919998 172.919998 227.919998
182.919998 172.919998 232.919998
182.919998 177.919998 187.919998
182.919998 177.919998 192.919998
182.919998 177.919998 197.919998
182.919998 177.919998 207.919998
182.919998 177.919998 212.919998
182.919998 177.919998 217.919998
182.919998 177.919998 227.919998
182.919998 182.919998 172.919998
182.919998 182.919998 177.919998
182.919998 182.919998 187.919998
182.919998 182.919998 197.919998
182.919998 182.919998 202.919998
182.919998 182.919998 212.919998
182.919998 182.919998 217.919998
182.919998 182.919998 227.919998
182.919998 182.919998 232.919998
182.919998 182.919998 237.919998
182.919998 187.919998 147.919998
182.919998 187.919998 182.919998
182.919998 187.919998 187.919998
182.919998 187.919998 192.919998
182.919998 187.919998 212.919998
182.919998 187.919998 217.919998
182.919998 187.919998 222.919998
182.919998 187.919998 227.919998
182.919998 187.919998 232.919998
182.919998 192.919998 187.919998
182.919998 192.919998 192.919998
182.919998 192.919998 217.919998
182.919998 192.919998 222.919998
182.919998 192.919998 227.919998
182.919998 197.919998 182.919998
182.919998 197.919998 192.919998
182.919998 197.919998 202.919998
182.919998 197.919998 217.919998
182.919998 202.919998 197.919998
182.919998 202.919998 207.919998
182.919998 207.919998 202.919998
182.919998 207.919998 207.919998
182.919998 207.919998 217.919998
182.919998 207.919998 222.919998
182.919998 207.919998 227.919998
182.919998 212.919998 137.919998
182.919998 212.919998 167.919998
182.919998 212.919998 172.919998
182.919998 212.919998 207.919998
182.919998 212.919998 212.919998
182.919998 212.919998 217.919998
182.919998 217.919998 162.919998
182.919998 217.919998 167.919998
182.919998 217.919998 172.919998
182.919998 217.919998 212.919998
182.919998 217.919998 222.919998
182.919998 217.919998 232.919998
182.919998 222.919998 162.919998
182.919998 222.919998 167.919998
182.919998 222.919998 172.919998
182.919998 222.919998 217.919998
182.919998 222.919998 222.919998
182.919998 227.919998 162.919998
182.919998 227.919998 167.919998
182.919998 227.919998 172.919998
182.919998 227.919998 202.919998
182.919998 232.919998 177.919998
182.919998 232.919998 187.919998
182.919998 232.919998 202.919998
182.919998 232.919998 207.919998
182.919998 237.919998 157.919998
182.919998 237.919998 162.919998
182.919998 237.919998 167.919998
182.919998 237.919998 172.919998
182.919998 237.919998 177.919998
182.919998 237.919998 182.919998
182.919998 237.919998 187.919998
182.919998 237.919998 192.919998
182.919998 237.919998 197.919998
182.919998 237.919998 202.919998
182.919998 237.919998 207.919998
182.919998 242.919998 147.919998
182.919998 242.919998 157.919998
182.919998 242.919998 162.919998
182.919998 242.919998 167.919998
182.919998 242.919998 172.919998
182.919998 242.919998 182.919998
182.919998 242.919998 187.919998
182.919998 242.919998 192.919998
182.919998 242.919998 197.919998
182.919998 242.919998 202.919998
182.919998 242.919998 207.919998
182.919998 247.919998 147.919998
182.919998 247.919998 152.919998
182.919998 247.919998 157.919998
182.919998 247.919998 162.919998
182.919998 247.919998 167.919998
182.919998 247.919998 172.919998
182.919998 247.919998 187.919998
182.919998 247.919998 192.919998
182.919998 247.919998 197.919998
182.919998 247.919998 202.919998
182.919998 252.919998 147.919998
182.919998 252.919998 152.919998
182.919998 252.919998 157.919998
182.919998 252.919998 162.919998
182.919998 252.919998 172.919998
182.919998 252.919998 177.919998
182.919998 252.919998 182.919998
182.919998 252.919998 187.919998
182.919998 252.919998 192.919998
182.919998 257.919998 147.919998
182.919998 257.919998 152.919998
182.919998 257.919998 157.919998
182.919998 257.919998 172.919998
182.919998 257.919998 177.919998
182.919998 257.919998 182.919998
182.919998 257.919998 187.919998
182.919998 257.919998 192.919998
182.919998 262.919998 147.919998
182.919998 262.919998 167.919998
182.919998 262.919998 172.919998
182.919998 262.919998 177.919998
182.919998 262.919998 182.919998
182.919998 262.919998 187.919998
182.919998 262.919998 192.919998
182.919998 262.919998 197.919998
182.919998 267.919998 167.919998
182.919998 267.919998 172.919998
182.919998 267.919998 177.919998
182.919998 267.919998 182.919998
182.919998 267.919998 197.919998
182.919998 267.919998 202.919998
182.919998 272.919998 162.919998
182.919998 272.919998 167.919998
182.919998 272.919998 172.919998
182.919998 272.919998 177.919998
182.919998 272.919998 192.919998
182.919998 272.919998 202.919998
182.919998 277.919998 187.919998
187.919998 107.91999799999999 177.919998
187.919998 107.91999799999999 197.919998
187.919998 107.91999799999999 202.919998
187.919998 112.91999799999999 162.919998
187.919998 112.91999799999999 167.919998
187.919998 112.91999799999999 172.919998
187.919998 112.91999799999999 182.919998
187.919998 112.91999799999999 187.919998
187.919998 112.91999799999999 192.919998
187.919998 112.91999799999999 197.919998
187.919998 117.91999799999999 172.919998
187.919998 117.91999799999999 177.919998
187.919998 117.91999799999999 182.919998
187.919998 117.91999799999999 197.919998
187.919998 117.91999799999999 202.919998
187.919998 122.91999799999999 177.919998
187.919998 122.91999799999999 182.919998
187.919998 122.91999799999999 212.919998
187.919998 127.91999799999999 152.919998
187.919998 127.91999799999999 172.919998
187.919998 127.91999799999999 187.919998
187.919998 127.91999799999999 212.919998
187.919998 127.91999799999999 217.919998
187.919998 132.919998 147.919998
187.919998 132.919998 152.919998
187.919998 132.919998 167.919998
187.919998 132.919998 172.919998
187.919998 132.919998 177.919998
187.919998 132.919998 197.919998
187.919998 132.919998 207.919998
187.919998 137.919998 152.919998
187.919998 137.919998 157.919998
187.919998 137.919998 172.919998
187.919998 137.919998 177.919998
187.919998 137.919998 182.919998
187.919998 137.919998 207.919998
187.919998 137.919998 212.919998
187.919998 137.919998 217.919998
187.919998 137.919998 222.919998
187.919998 137.919998 227.919998
187.919998 142.919998 157.919998
187.919998 142.919998 162.919998
187.919998 142.919998 172.919998
187.919998 142.919998 177.919998
187.919998 142.919998 182.919998
187.919998 142.919998 187.919998
187.919998 142.919998 197.919998
187.919998 142.919998 202.919998
187.919998 142.919998 212.919998
187.919998 142.919998 217.919998
187.919998 147.919998 147.919998
187.919998 147.919998 187.919998
187.919998 147.919998 197.919998
187.919998 147.919998 202.919998
187.919998 147.919998 207.919998
187.919998 152.919998 147.919998
187.919998 152.919998 152.919998
187.919998 152.919998 187.919998
187.919998 152.919998 202.919998
187.919998 152.919998 207.919998
187.919998 152.919998 222.919998
187.919998 152.919998 227.919998
187.919998 152.919998 232.919998
187.919998 152.919998 237.919998
187.919998 157.919998 137.919998
187.919998 157.919998 142.919998
187.919998 157.919998 157.919998
187.919998 157.919998 182.919998
187.919998 157.919998 187.919998
187.919998 157.919998 192.919998
187.919998 157.919998 197.919998
187.919998 157.919998 227.919998
187.919998 157.919998 232.919998
187.919998 162.919998 137.919998
187.919998 162.919998 142.919998
187.919998 162.919998 162.919998
187.919998 162.919998 167.919998
187.919998 162.919998 172.919998
187.919998 162.919998 177.919998
187.919998 162.919998 182.919998
187.919998 162.919998 187.919998
187.919998 162.919998 192.919998
187.919998 162.919998 202.919998
187.919998 162.919998 212.919998
187.919998 162.919998 217.919998
187.919998 162.919998 222.919998
187.919998 162.919998 227.919998
187.919998 162.919998 232.919998
187.919998 167.919998 142.919998
187.919998 167.919998 147.919998
187.919998 167.919998 157.919998
187.919998 167.919998 172.919998
187.919998 167.919998 177.919998
187.919998 167.919998 192.919998
187.919998 167.919998 202.919998
187.919998 167.919998 222.919998
187.919998 167.919998 227.919998
187.919998 167.919998 242.919998
187.919998 172.919998 162.919998
187.919998 172.919998 167.919998
187.919998 172.919998 172.919998
187.919998 172.919998 177.919998
187.919998 172.919998 202.919998
187.919998 172.919998 217.919998
187.919998 172.919998 232.919998
187.919998 177.919998 152.919998
187.919998 177.919998 167.919998
187.919998 177.919998 172.919998
187.919998 177.919998 187.919998
187.919998 177.919998 192.919998
187.919998 177.919998 197.919998
187.919998 177.919998 202.919998
187.919998 177.919998 207.919998
187.919998 177.919998 212.919998
187.919998 177.919998 217.919998
187.919998 177.919998 227.919998
187.919998 177.919998 232.919998
187.919998 177.919998 237.919998
187.919998 177.919998 242.919998
187.919998 177.919998 252.919998
187.919998 182.919998 157.919998
187.919998 182.919998 162.919998
187.919998 182.919998 172.919998
187.919998 182.919998 187.919998
187.919998 182.919998 197.919998
187.919998 182.919998 202.919998
187.919998 182.919998 207.919998
187.919998 182.919998 217.919998
187.919998 182.919998 222.919998
187.919998 182.919998 227.919998
187.919998 182.919998 232.919998
187.919998 182.919998 237.919998
187.919998 187.919998 172.919998
187.919998 187.919998 177.919998
187.919998 187.919998 182.919998
187.919998 187.919998 187.919998
187.919998 187.919998 192.919998
187.919998 187.919998 197.919998
187.919998 187.919998 202.919998
187.919998 187.919998 207.919998
187.919998 187.919998 227.919998
187.919998 187.919998 232.919998
187.919998 187.919998 237.919998
187.919998 192.919998 167.919998
187.919998 192.919998 182.919998
187.919998 192.919998 187.919998
187.919998 192.919998 192.919998
187.919998 192.919998 222.919998
187.919998 197.919998 192.919998
187.919998 197.919998 202.919998
187.919998 197.919998 207.919998
187.919998 202.919998 192.919998
187.919998 202.919998 207.919998
187.919998 202.919998 212.919998
187.919998 207.919998 212.919998
187.919998 207.919998 217.919998
187.919998 207.919998 222.919998
187.919998 212.919998 167.919998
187.919998 217.919998 162.919998
187.919998 217.919998 167.919998
187.919998 217.919998 222.919998
187.919998 217.919998 227.919998
187.919998 217.919998 232.919998
187.919998 222.919998 162.919998
187.919998 222.919998 167.919998
187.919998 222.919998 187.919998
187.919998 227.919998 182.919998
187.919998 227.919998 187.919998
187.919998 227.919998 192.919998
187.919998 227.919998 197.919998
187.919998 227.919998 202.919998
187.919998 227.919998 207.919998
187.919998 232.919998 182.919998
187.919998 232.919998 187.919998
187.919998 232.919998 202.919998
187.919998 232.919998 207.919998
187.919998 232.919998 212.919998
187.919998 232.919998 217.919998
187.919998 237.919998 162.919998
187.919998 237.919998 167.919998
187.919998 237.919998 177.919998
187.919998 237.919998 182.919998
187.919998 237.919998 187.919998
187.919998 237.919998 192.919998
187.919998 237.919998 202.919998
187.919998 237.919998 207.919998
187.919998 237.919998 212.919998
187.919998 242.919998 152.919998
187.919998 242.919998 157.919998
187.919998 242.919998 177.919998
187.919998 242.919998 182.919998
187.919998 242.919998 187.919998
187.919998 242.919998 192.919998
187.919998 242.919998 197.919998
187.919998 242.919998 202.919998
187.919998 242.919998 207.919998
187.919998 247.919998 152.919998
187.919998 247.919998 162.919998
187.919998 247.919998 167.919998
187.919998 247.919998 187.919998
187.919998 247.919998 192.919998
187.919998 247.919998 197.919998
187.919998 247.919998 212.919998
187.919998 252.919998 167.919998
187.919998 252.919998 187.919998
187.919998 252.919998 192.919998
187.919998 252.919998 207.919998
187.919998 252.919998 212.919998
187.919998 257.919998 147.919998
187.919998 257.919998 152.919998
187.919998 257.919998 172.919998
187.919998 257.919998 177.919998
187.919998 257.919998 182.919998
187.919998 257.919998 187.919998
187.919998 257.919998 192.919998
187.919998 257.919998 197.919998
187.919998 257.919998 202.919998
187.919998 257.919998 207.919998
187.919998 257.919998 212.919998
187.919998 262.919998 147.919998
187.919998 262.919998 152.919998
187.919998 262.919998 172.919998
187.919998 262.919998 177.919998
187.919998 262.919998 182.919998
187.919998 262.919998 212.919998
187.919998 267.919998 147.919998
187.919998 267.919998 172.919998
187.919998 267.919998 182.919998
187.919998 267.919998 187.919998
187.919998 267.919998 207.919998
187.919998 272.919998 157.919998
187.919998 272.919998 167.919998
187.919998 272.919998 172.919998
187.919998 272.919998 187.919998
187.919998 272.919998 197.919998
187.919998 272.919998 202.919998
187.919998 272.919998 207.919998
187.919998 277.919998 162.919998
187.919998 277.919998 172.919998
187.919998 277.919998 187.919998
187.919998 277.919998 197.919998
192.919998 107.91999799999999 192.919998
192.919998 107.91999799999999 197.919998
192.919998 107.91999799999999 202.919998
192.919998 107.91999799999999 207.919998
192.919998 112.91999799999999 167.919998
192.919998 112.91999799999999 172.919998
192.919998 112.91999799999999 177.919998
192.919998 112.91999799999999 187.919998
192.919998 112.91999799999999 192.919998
192.919998 112.91999799999999 202.919998
192.919998 112.91999799999999 207.919998
192.919998 117.91999799999999 167.919998
192.919998 117.91999799999999 172.919998
192.919998 117.91999799999999 177.919998
192.919998 117.91999799999999 182.919998
192.919998 117.91999799999999 187.919998
192.919998 122.91999799999999 162.919998
192.919998 122.91999799999999 167.919998
192.919998 122.91999799999999 172.919998
192.919998 122.91999799999999 177.919998
192.919998 122.91999799999999 182.919998
192.919998 122.91999799999999 187.919998
192.919998 122.91999799999999 192.919998
192.919998 122.91999799999999 197.919998
192.919998 122.91999799999999 207.919998
192.919998 127.91999799999999 157.919998
192.919998 127.91999799999999 162.919998
192.919998 127.91999799999999 172.919998
192.919998 127.91999799999999 182.919998
192.919998 127.91999799999999 187.919998
192.919998 127.91999799999999 207.919998
192.919998 127.91999799999999 212.919998
192.919998 127.91999799999999 217.919998
192.919998 132.919998 167.919998
192.919998 132.919998 197.919998
192.919998 132.919998 202.919998
192.919998 132.919998 207.919998
192.919998 132.919998 212.919998
192.919998 132.919998 217.919998
192.919998 137.919998 137.919998
192.919998 137.919998 142.919998
192.919998 137.919998 167.919998
192.919998 137.919998 177.919998
192.919998 137.919998 182.919998
192.919998 137.919998 187.919998
192.919998 137.919998 207.919998
192.919998 137.919998 212.919998
192.919998 137.919998 217.919998
192.919998 137.919998 222.919998
192.919998 137.919998 227.919998
192.919998 137.919998 232.919998
192.919998 142.919998 142.919998
192.919998 142.919998 152.919998
192.919998 142.919998 157.919998
192.919998 142.919998 162.919998
192.919998 142.919998 172.919998
192.919998 142.919998 177.919998
192.919998 142.919998 197.919998
192.919998 142.919998 202.919998
192.919998 142.919998 212.919998
192.919998 147.919998 167.919998
192.919998 147.919998 202.919998
192.919998 147.919998 207.919998
192.919998 147.919998 212.919998
192.919998 152.919998 142.919998
192.919998 152.919998 147.919998
192.919998 152.919998 172.919998
192.919998 152.919998 177.919998
192.919998 152.919998 182.919998
192.919998 152.919998 187.919998
192.919998 152.919998 192.919998
192.919998 152.919998 222.919998
192.919998 152.919998 227.919998
192.919998 152.919998 232.919998
192.919998 152.919998 237.919998
192.919998 152.919998 242.919998
192.919998 157.919998 137.919998
192.919998 157.919998 142.919998
192.919998 157.919998 172.919998
192.919998 157.919998 182.919998
192.919998 157.919998 192.919998
192.919998 157.919998 232.919998
192.919998 157.919998 237.919998
192.919998 157.919998 242.919998
192.919998 162.919998 152.919998
192.919998 162.919998 157.919998
192.919998 162.919998 162.919998
192.919998 162.919998 172.919998
192.919998 162.919998 177.919998
192.919998 162.919998 182.919998
192.919998 162.919998 197.919998
192.919998 162.919998 202.919998
192.919998 162.919998 222.919998
192.919998 162.919998 227.919998
192.919998 162.919998 232.919998
192.919998 162.919998 237.919998
192.919998 162.919998 242.919998
192.919998 162.919998 247.919998
192.919998 167.919998 142.919998
192.919998 167.919998 157.919998
192.919998 167.919998 162.919998
192.919998 167.919998 172.919998
192.919998 167.919998 177.919998
192.919998 167.919998 192.919998
192.919998 167.919998 197.919998
192.919998 167.919998 202.919998
192.919998 167.919998 222.919998
192.919998 167.919998 227.919998
192.919998 167.919998 237.919998
192.919998 172.919998 177.919998
192.919998 172.919998 182.919998
192.919998 172.919998 197.919998
192.919998 172.919998 202.919998
192.919998 172.919998 217.919998
192.919998 172.919998 252.919998
192.919998 177.919998 147.919998
192.919998 177.919998 152.919998
192.919998 177.919998 157.919998
192.919998 177.919998 172.919998
192.919998 177.919998 177.919998
192.919998 177.919998 187.919998
192.919998 177.919998 192.919998
192.919998 177.919998 202.919998
192.919998 177.919998 207.919998
192.919998 177.919998 212.919998
192.919998 177.919998 217.919998
192.919998 177.919998 222.919998
192.919998 177.919998 227.919998
192.919998 177.919998 237.919998
192.919998 177.919998 242.919998
192.919998 177.919998 247.919998
192.919998 177.919998 252.919998
192.919998 182.919998 157.919998
192.919998 182.919998 172.919998
192.919998 182.919998 177.919998
192.919998 182.919998 187.919998
192.919998 182.919998 197.919998
192.919998 182.919998 202.919998
192.919998 182.919998 227.919998
192.919998 182.919998 237.919998
192.919998 182.919998 242.919998
192.919998 187.919998 162.919998
192.919998 187.919998 167.919998
192.919998 187.919998 182.919998
192.919998 187.919998 192.919998
192.919998 187.919998 197.919998
192.919998 187.919998 202.919998
192.919998 187.919998 222.919998
192.919998 187.919998 227.919998
192.919998 187.919998 232.919998
192.919998 192.919998 167.919998
192.919998 192.919998 172.919998
192.919998 192.919998 182.919998
192.919998 192.919998 187.919998
192.919998 192.919998 192.919998
192.919998 192.919998 202.919998
192.919998 192.919998 222.919998
192.919998 207.919998 182.919998
192.919998 212.919998 162.919998
192.919998 212.919998 167.919998
192.919998 212.919998 182.919998
192.919998 212.919998 192.919998
192.919998 212.919998 217.919998
192.919998 212.919998 227.919998
192.919998 217.919998 162.919998
192.919998 217.919998 167.919998
192.919998 217.919998 177.919998
192.919998 217.919998 182.919998
192.919998 217.919998 187.919998
192.919998 217.919998 192.919998
192.919998 217.919998 217.919998
192.919998 217.919998 222.919998
192.919998 217.919998 227.919998
192.919998 222.919998 162.919998
192.919998 222.919998 167.919998
192.919998 222.919998 177.919998
192.919998 222.919998 187.919998
192.919998 222.919998 192.919998
192.919998 222.919998 207.919998
192.919998 222.919998 222.919998
