ply
format ascii 1.0
comment Created by Open3D
element vertex 110
property float x
property float y
property float z
end_header
319.919998 164.919998 234.919998
319.919998 164.919998 239.919998
319.919998 169.919998 239.919998
319.919998 169.919998 244.919998
319.919998 169.919998 249.919998
319.919998 174.919998 249.919998
319.919998 174.919998 269.919998
319.919998 179.919998 259.919998
319.919998 179.919998 264.919998
319.919998 184.919998 214.919998
319.919998 189.919998 214.919998
319.919998 199.919998 269.919998
319.919998 209.919998 234.919998
319.919998 219.919998 249.919998
319.919998 224.919998 249.919998
319.919998 224.919998 254.919998
324.919998 149.919998 244.919998
324.919998 149.919998 254.919998
324.919998 154.919998 224.919998
324.919998 154.919998 244.919998
324.919998 154.919998 249.919998
324.919998 159.919998 214.919998
324.919998 159.919998 219.919998
324.919998 159.919998 224.919998
324.919998 159.919998 239.919998
324.919998 159.919998 244.919998
324.919998 159.919998 274.919998
324.919998 164.919998 209.919998
324.919998 164.919998 224.919998
324.919998 164.919998 234.919998
324.919998 169.919998 209.919998
324.919998 169.919998 214.919998
324.919998 169.919998 219.919998
324.919998 169.919998 239.919998
324.919998 169.919998 244.919998
324.919998 169.919998 254.919998
324.919998 174.919998 204.919998
324.919998 174.919998 209.919998
324.919998 179.919998 204.919998
324.919998 179.919998 209.919998
324.919998 184.919998 204.919998
324.919998 184.919998 209.919998
324.919998 184.919998 214.919998
324.919998 189.919998 264.919998
324.919998 229.919998 244.919998
329.919998 139.919998 234.919998
329.919998 144.919998 219.919998
329.919998 144.919998 229.919998
329.919998 144.919998 239.919998
329.919998 149.919998 214.919998
329.919998 149.919998 219.919998
329.919998 149.919998 249.919998
329.919998 149.919998 254.919998
329.919998 149.919998 259.919998
329.919998 154.919998 229.919998
329.919998 154.919998 234.919998
329.919998 154.919998 239.919998
329.919998 154.919998 249.919998
329.919998 154.919998 254.919998
329.919998 154.919998 259.919998
329.919998 159.919998 214.919998
329.919998 159.919998 219.919998
329.919998 159.919998 229.919998
329.919998 164.919998 244.919998
329.919998 164.919998 249.919998
329.919998 169.919998 209.919998
329.919998 169.919998 244.919998
329.919998 169.919998 249.919998
329.919998 174.919998 209.919998
329.919998 174.919998 214.919998
329.919998 174.919998 219.919998
329.919998 179.919998 194.919998
329.919998 179.919998 199.919998
329.919998 179.919998 209.919998
334.919998 134.919998 224.919998
334.919998 134.919998 229.919998
334.919998 139.919998 234.919998
334.919998 139.919998 249.919998
334.919998 144.919998 224.919998
334.919998 144.919998 229.919998
334.919998 144.919998 249.919998
334.919998 144.919998 254.919998
334.919998 149.919998 239.919998
334.919998 149.919998 244.919998
334.919998 149.919998 259.919998
334.919998 154.919998 234.919998
334.919998 154.919998 239.919998
334.919998 154.919998 249.919998
334.919998 154.919998 254.919998
334.919998 159.919998 224.919998
334.919998 164.919998 224.919998
334.919998 169.919998 224.919998
334.919998 179.919998 209.919998
334.919998 179.919998 214.919998
339.919998 129.919998 239.919998
339.919998 129.919998 244.919998
339.919998 134.919998 214.919998
339.919998 134.919998 234.919998
339.919998 134.919998 239.919998
339.919998 134.919998 244.919998
339.919998 144.919998 234.919998
339.919998 144.919998 239.919998
339.919998 144.919998 244.919998
339.919998 144.919998 254.919998
339.919998 149.919998 229.919998
339.919998 149.919998 234.919998
339.919998 149.919998 239.919998
339.919998 149.919998 254.919998
339.919998 149.919998 259.919998
339.919998 154.919998 229.919998
