93.81214        118.88157        126.32679
99.97212        141.62835        165.96775
96.16953        109.51924        100.48268
101.04173        114.60538        107.49792
98.15278        128.58148        137.65262
98.73639        136.07862        132.89082
95.31413        150.00846        175.09029
100.01993        96.02864        129.19622
99.01635        99.80261        85.40957
98.98689        110.76467        95.18157
100.85419        111.26520        101.27356
101.15458        109.64041        131.12984
104.15640        109.02908        136.95077
104.02476        120.19089        138.98178
101.25877        143.49692        156.19184
98.19361        158.42476        104.40803
104.85741        79.85042        99.51265
108.15744        90.27232        140.56113
106.87216        95.89979        124.03262
104.25866        100.67734        120.40853
105.89943        100.67830        136.11664
104.19673        105.91577        120.68786
108.50084        114.65888        106.21645
108.48391        128.59459        135.87242
106.00650        132.93509        155.97720
105.91373        134.65291        127.44702
106.07425        138.28505        134.54499
105.94133        145.39633        156.18289
106.13425        152.17328        106.45698
106.46557        150.83729        151.92718
106.37056        160.84096        144.97017
113.41543        166.98083        151.44753
114.30222        81.56572        137.27556
113.24474        78.85878        151.46855
109.52298        86.94243        146.48607
110.73415        95.93895        138.41450
109.87553        103.36261        125.84920
112.83482        99.95060        151.53710
110.83972        104.16280        130.58667
116.19161        107.07937        141.11264
110.91175        115.68643        111.54004
111.45104        115.14509        129.10829
109.77338        115.89143        136.20326
111.25436        122.18329        115.34160
110.60142        121.43728        120.43995
111.13912        118.58421        125.37357
111.43337        120.21865        145.52561
110.98546        125.79018        145.82057
111.99545        138.72668        140.10973
111.74884        138.78655        145.68381
114.87863        136.02418        155.60632
113.07233        138.52560        130.93436
113.77485        143.85138        121.81114
111.73326        145.26339        148.94443
109.67157        150.22881        100.81983
111.50969        150.90355        111.21869
114.54690        151.46637        133.49743
108.22271        155.67860        140.05656
111.96450        161.18066        120.79956
113.31596        175.48784        147.22018
116.44702        65.92691        140.19761
114.95640        73.53904        145.28729
116.17254        86.11867        152.37588
120.13446        88.58210        120.22269
117.56454        99.62234        138.15935
117.82154        98.72105        145.17796
115.32080        111.38562        130.41077
115.42235        114.97451        115.62641
115.43924        115.76845        125.93644
115.30490        131.35859        130.73128
115.52503        132.45432        138.09834
115.03273        145.38603        109.80174
116.93943        156.49231        144.72913
116.99121        160.52670        111.09549
114.89769        170.27318        125.56365
115.35759        169.88540        131.08345
114.91500        170.12982        139.92943
120.44345        65.71456        126.01429
124.14614        79.60475        139.24671
119.99723        81.10666        130.88126
120.47402        90.38436        140.41228
119.02056        89.80011        145.19000
122.11708        94.28360        116.74211
120.14099        100.29693        125.35441
120.86251        98.20632        131.17334
120.43338        113.25679        130.07073
120.67192        111.02128        145.16118
123.02671        108.39542        151.44455
119.99795        121.86589        122.02101
120.03739        122.00540        132.60206
119.92158        126.15187        158.96740
124.19310        136.03712        143.68899
122.87791        134.79769        150.80146
119.98547        137.33325        161.04517
124.11291        140.94686        136.55748
120.63585        145.07085        145.18482
120.49678        150.33573        115.66437
120.48551        156.38391        125.58518
123.21197        167.31819        126.69426
122.05048        170.13221        139.82221
123.97000        175.24784        154.06320
120.77894        179.23802        143.04875
126.32574        70.58158        139.65368
127.25714        79.01693        152.99357
130.24512        84.38040        128.64867
127.38119        95.53590        116.50680
125.51840        98.30882        126.22837
125.80579        99.88848        137.38842
125.90430        100.54273        145.58734
125.47254        100.58324        150.81842
125.79360        113.47157        130.95815
127.32676        115.48280        143.68906
127.80757        117.87640        151.88078
125.75997        125.75997        155.56514
125.72638        138.04846        130.95814
126.07908        142.89920        150.35464
127.01347        153.92676        126.27873
125.71416        151.63148        137.38838
125.61565        150.97710        145.58722
125.06598        150.74778        153.09225
124.13869        155.98384        116.50678
125.63332        165.26868        105.80209
127.20790        165.03229        155.78476
126.17658        172.03058        136.26181
125.61392        170.45377        150.02059
130.97553        73.01933        143.52857
134.14997        91.56269        139.09250
131.03439        95.13618        125.58519
132.28738        107.29216        119.16066
131.01376        106.29918        125.22711
130.04498        111.20639        137.32389
130.42831        118.68625        140.25040
131.48156        120.41242        155.48956
131.16937        127.54878        120.86439
130.67558        127.51926        156.23478
131.14946        131.21373        116.80460
131.02939        130.96818        131.03464
131.04161        136.46894        129.50357
130.64253        140.77100        139.70582
130.84792        140.49863        145.16100
130.82959        142.30916        130.81501
130.66793        143.67159        154.26278
130.90445        150.50702        122.27308
132.64581        152.91184        134.97745
130.20246        161.19552        138.43273
132.90592        162.51358        145.40208
131.32823        164.07029        120.51705
132.35727        170.34255        131.05342
131.05323        169.89603        158.29318
130.89965        173.43298        140.53063
138.90482        79.91133        128.73021
136.49437        75.50161        145.56641
137.63116        82.10651        138.88301
136.44343        85.39762        148.54641
132.11944        95.10796        111.99891
135.90778        97.84043        150.30192
138.66637        99.38013        136.02450
138.92516        107.70423        112.22731
136.27849        106.05478        140.16391
137.93259        114.41856        155.60573
138.83133        115.15593        134.64463
136.21502        120.16129        130.73129
133.15475        130.78250        138.63332
136.09759        136.54535        115.62630
138.77235        132.75870        120.65015
137.95569        135.75134        127.16887
138.44543        145.48564        144.33318
136.09302        149.80736        129.41878
134.58441        152.21944        145.37517
137.62812        151.98760        151.58324
138.09941        173.45675        139.90726
135.34727        165.40118        152.37592
135.07260        185.59268        140.19770
140.61896        81.27261        155.69144
140.40070        99.27374        106.36890
140.01004        100.61604        111.21869
140.62991        106.68460        149.33847
140.34868        105.92182        156.31505
140.01880        111.24598        145.71259
139.78011        120.00046        145.31966
140.26554        129.33658        115.34159
140.63260        125.90759        135.78160
140.53455        125.72969        145.82054
140.15810        130.68425        131.22313
142.04366        131.33093        139.88270
140.08663        131.30124        145.52559
140.60814        135.83340        111.54010
141.74670        135.62859        136.20324
143.00965        138.49460        105.51054
140.68021        147.35715        130.58664
141.64635        150.48774        125.83521
140.78562        155.58087        138.41447
141.20509        162.95168        140.29566
142.77391        165.42289        147.23941
145.01740        81.44491        159.59331
145.17861        84.85063        150.80849
145.53853        93.45715        145.24383
144.02241        95.48690        140.21606
144.26703        100.11970        117.10144
145.02039        100.34497        151.12382
145.57857        106.12357        156.18262
149.71415        110.63906        164.21833
145.15630        113.82325        132.88853
145.45012        120.97475        136.06953
150.92028        131.26641        136.75428
147.87765        141.01625        136.57449
149.17290        144.58538        125.33869
145.46098        145.67676        136.07385
145.91773        150.39642        134.08321
143.89304        150.76000        146.05009
145.32684        155.69047        123.84430
151.14197        101.23313        169.85370
152.64631        117.84977        132.07121
150.75706        120.53611        138.01850
150.46620        136.55401        106.32189
155.50518        131.40599        129.38352
151.44515        155.23510        130.40913
156.05520        106.39063        100.79050
157.77420        106.14104        170.20116
156.04631        111.10248        167.43946
155.31434        120.86958        142.52708
156.48652        125.53722        139.96276
155.28102        140.09484        90.78428
155.35013        142.00044        100.48266
159.20945        140.33792        95.74789
170.29773        129.68827        99.55878
169.74378        145.97211        95.63323
