228.35859        298.19244        329.50827
230.11360        304.70746        313.46786
233.00976        342.08464        332.17279
230.12915        344.33100        343.97706
234.79934        289.71087        272.52405
234.40627        298.84568        257.35307
234.54157        299.40867        276.25219
240.60183        304.46243        254.79227
238.94285        312.94496        272.28211
234.58678        314.62087        321.73508
234.25054        329.37586        332.49175
234.35192        336.75744        343.41109
237.72470        341.20273        351.60476
238.57496        275.05267        319.05207
241.44428        279.10816        251.66118
240.42627        278.14871        260.15764
242.50493        279.68899        280.09194
239.69532        287.82967        283.62925
243.01477        290.42224        251.87912
242.23163        289.35843        270.11788
248.56869        295.75800        327.11867
239.01998        297.79481        329.06227
242.57667        299.10533        269.00799
242.69386        297.58347        278.11844
239.63322        298.30120        342.49693
240.06759        304.49463        342.55595
239.56012        311.13128        263.11948
242.87338        316.26731        331.81523
240.24143        317.30826        321.88460
243.64665        328.13633        326.51759
239.89158        333.96065        344.34412
240.25694        338.90370        321.77535
239.92058        344.93398        341.00482
244.65488        276.41268        330.41940
244.24612        278.48779        272.38467
246.11736        278.21876        318.52273
244.32486        283.95457        289.59796
244.67010        285.35169        325.97971
247.32700        289.77220        314.55223
244.83772        299.13951        255.03512
242.94537        300.50849        260.19551
246.68421        298.43725        312.79039
245.94809        307.61581        334.56257
244.54987        308.93730        324.01292
244.59001        318.36486        294.88006
246.30275        327.81686        296.64712
244.48238        334.28690        334.51621
249.64692        346.18309        324.83553
244.46649        347.27201        334.50616
244.45486        348.56641        341.80222
248.58605        270.20079        250.00414
250.10774        272.06408        255.19124
251.71177        274.14176        261.61856
255.10191        273.83329        324.77817
252.30262        281.47303        250.12153
250.76122        279.86004        324.11219
250.46287        278.47500        334.61160
261.87586        276.40876        354.98747
249.99318        283.30990        264.67937
252.38405        282.61785        312.35537
252.86951        291.66111        250.29135
248.28590        289.08415        278.52456
252.95010        289.48859        319.77317
253.62354        288.01255        331.42450
249.24976        298.78189        270.50270
252.99308        302.97532        348.52382
250.24381        302.59757        235.63295
250.21420        297.38765        254.37163
250.06797        309.10408        238.52429
257.26238        317.73676        327.22017
249.70586        312.72954        234.08357
252.46183        315.95785        239.80899
250.72539        311.96778        279.81344
251.49563        319.03466        302.12761
248.84967        321.45229        266.98601
249.07160        324.23046        302.91814
249.16469        330.32698        265.66534
249.90456        328.92341        304.80410
250.36572        329.32471        318.49581
250.30331        334.10316        307.57904
253.20409        336.78454        318.09357
250.47841        336.54144        328.85509
252.17232        332.88660        340.29473
250.43068        339.05798        346.94248
249.78484        345.78377        345.00551
250.13705        347.20507        335.14055
254.85400        259.94747        310.43779
254.64225        263.73459        320.27708
252.80001        273.98303        298.34676
254.61267        282.24929        244.83930
254.83341        280.42686        339.15791
254.19718        289.65518        264.29865
254.91694        288.50357        296.11053
252.78943        289.72299        308.17250
259.36453        289.01672        351.18241
254.17135        298.91597        260.34340
255.05488        304.58002        239.60794
254.41654        304.17903        322.57681
254.84794        304.35762        332.34744
254.31858        309.17761        232.08854
255.21396        309.24638        251.46815
254.14613        308.54955        264.43973
260.88834        308.60061        356.58792
254.62192        314.36332        235.00106
258.23002        314.32631        260.11838
254.12294        314.37044        267.42266
254.75648        311.82456        284.16288
254.98164        313.01716        318.85088
254.17115        321.88688        261.45996
254.29831        324.62343        284.12153
253.23553        322.11084        290.90724
255.04038        319.39887        309.57825
254.34743        324.79687        344.34168
257.62860        327.59325        268.95693
254.21934        330.30021        296.59501
254.65171        328.75067        326.81139
257.82909        335.97389        264.79491
259.33608        336.73742        310.02886
254.74878        338.87114        334.65982
254.71699        344.49416        316.91302
256.51142        343.78659        334.31307
254.97566        383.23486        307.83528
253.92698        390.72263        296.14427
258.82005        204.98409        234.05993
259.76314        255.26318        315.90195
258.42987        269.63751        306.67758
261.13757        276.99373        334.94108
262.57277        282.91269        254.63164
267.39029        280.40811        279.75065
258.49230        282.48147        323.73073
262.43246        281.06700        342.80535
258.64620        284.33167        260.40080
262.51490        283.45763        309.02105
260.11901        290.87152        249.69853
265.79635        298.62025        244.30857
262.44581        294.31768        254.30499
261.66954        294.24525        261.39190
260.00981        293.69365        311.06175
264.79781        296.05633        325.64094
259.97811        299.25623        344.33167
260.92074        298.82116        354.43836
260.07678        306.78400        240.58092
260.09078        304.08219        348.93901
262.99902        307.77522        229.14984
260.17470        308.34167        249.78739
260.30919        309.00251        329.57602
262.12611        313.19930        283.06069
259.80545        314.81817        294.71673
260.34022        314.15861        339.01710
263.46062        318.19563        228.40947
268.75651        314.93587        235.26944
263.13221        318.89757        255.22857
260.72306        318.72414        270.26140
261.41023        323.41765        316.79367
264.00284        320.54158        352.25325
262.99310        324.17708        337.36989
263.86473        326.08541        260.37083
259.85363        329.56241        275.10119
260.19234        328.76052        298.89163
259.60244        329.53701        326.99709
260.62452        334.61538        326.26180
260.10762        338.65714        251.29087
264.00730        342.80588        261.73614
264.90935        347.61471        314.54044
262.24793        349.63833        324.71425
258.84323        389.97371        312.80386
265.13399        228.62575        378.80233
265.13250        239.57872        334.00105
265.26034        252.26962        274.05336
264.07487        244.22494        328.74410
262.57254        249.66694        323.99867
265.58188        255.71347        308.18155
269.61819        262.71143        294.96885
266.78323        264.16967        308.97616
265.33585        259.73379        334.70949
266.61199        260.46037        345.59903
264.81754        265.18582        282.46351
264.05403        268.51214        318.44393
266.63047        284.28843        298.92212
264.55963        290.57987        264.88986
264.64374        290.07177        304.03901
264.63117        290.32430        335.91610
269.74239        299.87706        236.69256
267.03879        295.14138        347.94143
264.77221        300.41105        224.72361
265.03513        305.43179        264.93792
264.14369        304.27674        244.55289
263.96113        305.87700        254.49168
264.04576        304.37223        318.70677
263.94563        304.19321        324.00258
264.88544        302.53767        337.02762
264.48682        307.05916        346.30063
268.84819        312.22332        245.07198
266.69953        310.99122        314.17499
268.70806        316.08489        218.42786
267.19507        315.61902        309.14739
265.24637        314.28256        319.16284
262.73247        317.18779        274.64352
264.69894        324.82455        290.38737
264.58354        327.02547        280.02151
265.08605        328.23706        308.86079
264.51511        328.62645        329.03505
266.49332        328.71412        346.60241
264.08724        332.74775        273.99881
264.67694        334.41497        336.85766
265.15936        338.90567        246.53980
264.55705        341.11493        269.85526
264.68393        339.21381        278.85143
266.43267        344.54612        254.21579
264.30973        344.68740        327.18735
266.37195        350.63696        260.81438
269.85604        231.86985        344.70109
269.69992        262.70463        316.09413
271.67395        264.67729        266.73109
270.38469        265.00936        280.88724
270.05547        263.97835        328.72698
270.29808        272.13998        334.49454
271.87994        269.91460        341.34946
272.34294        274.39434        309.18292
270.34786        276.05714        320.53880
267.41069        274.38865        324.60633
270.13692        279.63086        329.56323
270.00330        280.31534        341.51322
269.97259        284.25477        254.45232
273.24678        284.74841        267.63526
272.48272        284.71219        319.12652
271.54681        283.86294        352.30786
270.25166        290.32387        269.67181
272.55192        293.99974        230.03538
273.81279        296.56622        270.71974
268.70690        298.22992        288.31564
268.71187        297.34620        315.29749
273.29043        305.43606        228.63181
269.65268        303.98158        268.58190
269.84905        305.28560        343.97673
270.21998        303.43850        360.14275
267.48895        308.70660        218.30736
272.66101        312.66743        279.45857
269.98812        309.27836        290.78336
270.31947        309.06501        299.30289
269.07710        309.36094        306.50569
269.81820        310.57160        334.49771
269.66989        309.18076        349.04179
269.40261        316.03803        290.94022
270.54665        316.62379        337.80906
269.95751        314.46375        354.85119
269.96219        319.32935        226.68386
270.99858        317.41896        268.28100
269.59855        321.11691        358.71859
270.47028        326.92631        274.90966
272.53515        324.11010        289.82962
272.38926        324.54928        298.17360
273.02497        322.94590        348.43726
270.24834        329.18971        289.93465
269.97651        336.20497        251.74854
270.67872        334.58575        260.17128
269.95630        340.34609        268.10345
269.84320        334.74182        280.04384
270.44382        331.76913        284.49699
270.18059        332.78796        304.29520
268.56062        337.59132        319.82427
269.62408        334.26667        344.04908
268.37088        344.33384        278.40760
270.26430        348.34845        254.67755
268.43145        351.52678        319.24176
274.18351        223.84146        244.56520
274.13349        240.32332        340.69564
274.04536        245.06492        274.59232
276.43655        254.65554        258.13225
275.07290        254.54261        302.75324
275.90477        254.65607        328.93078
276.61711        255.07285        335.97828
277.40794        259.97358        324.22077
274.02383        263.03769        339.51584
274.49640        266.64238        253.29984
275.68253        267.85542        315.74481
274.71088        268.66064        244.43100
274.57584        270.63837        300.82038
278.01085        266.66193        331.32823
276.46543        273.87538        239.97523
275.43656        275.43285        261.15901
280.85118        274.24834        308.50530
274.64868        279.60342        254.80480
274.71587        279.91324        282.74935
274.83059        278.42587        324.53775
274.77056        284.64081        304.18699
274.41649        284.65889        336.41653
274.46665        290.17568        254.52051
274.87537        291.50510        278.71718
278.35851        293.54786        343.84015
274.87888        293.29315        264.25492
275.07757        294.36954        349.49600
276.19597        294.58922        359.31357
275.09447        299.11491        254.55286
274.62894        299.01063        339.29966
274.21461        305.15111        299.11830
274.51761        304.37653        340.72275
279.30282        305.52200        352.18229
277.35412        306.51087        308.86041
276.00015        309.41811        316.70032
274.84854        313.91972        254.81245
279.22378        315.56828        297.82154
275.75858        312.26935        326.55031
272.97193        314.30266        362.51032
276.82565        317.04937        306.36233
276.16218        320.82637        324.24876
274.12696        324.47876        218.17066
274.26658        323.51379        227.32246
275.33225        327.58300        319.87369
274.40839        329.45426        259.62512
272.62681        328.48859        270.03438
274.95568        329.33066        304.65408
273.95901        336.85671        274.26922
276.43609        334.34924        319.37553
274.97207        334.01301        328.30929
275.46054        339.60291        258.36909
276.47987        339.22338        284.48932
274.70325        338.99397        322.66771
274.39957        344.07963        274.89599
272.83021        342.73547        329.14318
276.99222        341.66384        345.57449
276.60286        344.29171        371.05830
279.73468        347.33565        275.53709
275.90427        355.51547        286.80555
274.02987        349.14851        320.12220
276.61564        384.50866        304.73577
274.59866        398.49965        305.05573
280.24016        230.06333        385.34636
280.09645        235.51725        345.64028
280.82865        240.04685        254.65199
277.04222        241.53129        328.84899
283.23551        250.47559        255.02887
280.05156        249.73071        264.00746
280.47740        254.21383        225.06026
280.75140        254.33467        243.38975
283.23173        257.47035        296.78630
279.98705        254.70083        374.50214
280.33977        259.78933        260.42894
278.39862        260.09468        269.80740
279.86061        266.37976        254.26996
282.85921        266.13371        294.74771
280.21684        270.14754        260.03991
280.58634        270.30632        268.17401
280.15392        274.17799        244.81030
280.01889        278.02738        276.53441
280.32730        283.69125        296.96825
284.35331        280.62478        334.37681
280.78539        280.23190        244.72767
281.40307        279.60980        253.05315
282.04611        280.43585        318.78577
279.79119        279.61676        328.23672
280.28627        280.57511        344.12095
282.56227        287.85576        305.67071
280.09752        294.48154        264.57657
283.11859        292.87406        280.27794
280.18432        300.25651        320.70242
277.21119        299.10938        350.77163
279.77452        307.38324        341.85341
278.49871        309.59433        234.79447
279.91271        309.17912        304.38416
284.65560        307.35587        359.45555
279.77847        314.93783        253.96643
280.08303        314.57565        289.59619
282.45280        315.84165        353.38694
279.60156        321.60295        263.25910
279.23737        318.92248        272.62175
277.18630        319.13231        316.59098
279.80282        318.84242        334.64465
280.13411        320.37128        344.75518
280.24965        324.58795        269.83895
280.12150        322.91394        280.22891
280.26286        324.60791        338.78026
280.50488        331.71803        290.27547
279.75166        326.88994        295.19832
279.15302        333.48086        324.34160
279.79190        334.54022        259.90463
280.76375        337.88136        267.05094
282.98378        340.18043        291.29592
282.76726        338.68572        317.19506
280.40855        345.17104        254.62959
280.85935        348.70132        261.65290
286.85982        342.38518        349.24935
278.55896        352.71965        322.89503
277.18439        388.40298        309.19211
284.69641        234.62412        252.88031
284.94720        234.32078        328.63057
286.68273        242.07828        339.12949
285.11031        242.83684        345.91799
284.66940        244.11328        249.99184
284.60685        248.74694        260.33599
283.00324        244.52159        388.69760
284.58820        244.49812        394.31769
284.39418        249.74297        246.37498
284.89134        255.68472        267.38026
285.07528        249.62892        388.34890
285.00637        264.54370        234.78604
286.04020        265.34638        242.01850
285.18826        262.55008        258.61675
284.62373        272.42855        249.77221
284.29310        268.72322        255.08472
286.51050        268.49681        273.96446
284.79724        270.02584        304.58209
284.69922        274.08314        264.49991
288.68668        281.57303        294.13778
286.29097        284.52859        270.29775
284.91868        285.06249        282.00414
286.35256        290.30919        264.96978
284.69955        297.29645        329.42527
286.95546        297.46709        312.08921
285.20668        299.14393        319.17219
286.08468        309.07357        304.57958
284.03965        309.12748        349.07630
287.65902        312.85882        346.13665
291.17915        319.40388        290.92506
285.24882        327.16753        296.46578
287.34789        326.56482        315.50559
282.72748        328.94560        270.01171
284.28523        330.37922        331.31614
283.99806        334.76333        308.92509
285.14415        334.63074        324.02845
287.65107        334.40984        343.01005
288.13989        338.75058        276.25643
284.76138        340.66054        303.05577
284.71002        345.08019        284.68139
282.86332        344.34487        315.97233
284.65237        348.81841        304.54715
284.66284        354.74777        280.34767
284.47165        354.28985        291.95055
286.20385        355.53833        333.37905
286.32669        354.19773        359.13155
285.65914        355.36305        365.87715
284.95516        359.06892        378.42596
284.87452        380.93410        308.53396
284.83843        384.90798        314.17405
285.06151        394.10212        305.03429
283.90010        398.92802        299.51441
288.81670        218.82462        248.68846
290.28383        236.77733        348.90045
290.25411        248.18324        238.23401
290.12697        244.89549        248.76371
289.93700        244.71835        264.45462
288.82934        241.37030        329.37236
289.92425        249.91874        250.30618
289.59415        249.84112        264.73138
293.40150        255.90354        240.12803
294.52356        261.09554        297.97209
290.14026        262.41489        304.28629
288.42230        264.77688        230.48001
289.75726        265.25340        245.13712
291.36521        264.46427        263.36355
290.03661        264.35032        312.96194
289.38520        272.80067        260.15514
289.75097        270.69385        294.28171
293.49647        271.17176        309.68586
293.28303        273.93989        282.32971
290.44136        278.58068        240.73511
288.73967        278.89254        262.93041
292.42895        281.22677        320.10522
292.32498        286.91121        272.30233
288.35519        284.45108        308.64446
291.70751        291.05237        282.52591
290.38890        288.46618        304.30497
290.23381        290.45994        314.30646
293.94793        295.58547        266.58307
295.50718        290.28619        301.15531
293.80989        292.34100        330.85138
288.81079        304.30252        274.42347
290.45734        304.94176        294.63404
288.94017        304.27741        309.15425
290.08834        309.09257        270.46504
289.13214        308.66547        316.60827
290.50900        316.17464        308.03744
290.28673        326.87842        284.50762
287.04597        328.30671        304.94122
290.20387        333.97621        275.00539
293.44349        335.74228        295.39062
292.42551        338.92448        304.63478
290.17946        339.19511        319.01643
289.88400        339.44577        324.28037
286.98863        339.32756        367.23373
289.98994        346.89637        294.21253
288.27115        344.68957        334.49088
289.97942        348.71794        365.04839
294.62409        354.58643        285.85717
290.39335        354.73706        348.91661
290.01857        351.75134        354.54701
289.23695        362.58171        323.81641
297.26818        358.06102        337.80145
291.53289        365.56220        295.97243
290.77541        364.36600        335.88290
290.05581        364.54129        379.19404
288.26480        393.24621        295.20415
294.31018        218.76665        238.17625
296.83228        237.13633        328.90775
294.14305        234.84353        336.79992
293.98559        236.12064        388.52173
296.46421        248.62727        259.50710
295.23003        249.69908        298.56954
294.84932        254.25060        266.03492
295.44987        261.26758        232.28446
294.86673        260.08556        258.54772
292.89171        259.94292        268.99297
299.36880        259.36737        307.16096
297.00158        273.20207        245.26284
295.87466        270.07195        302.15179
296.98665        271.11338        273.36367
294.14643        274.15562        322.49029
299.59069        281.98128        289.80600
294.60905        290.55343        292.20720
297.49669        290.38871        319.74620
294.42293        294.94883        286.63504
295.26839        303.16196        279.64906
298.44386        297.03866        290.56968
294.05742        298.69171        321.32726
297.46751        308.58420        271.63784
298.20236        306.62293        297.51750
296.72063        317.50370        297.43348
293.91041        314.38236        354.68274
295.77746        318.80535        274.37391
296.76893        317.16860        314.21786
297.21726        323.72949        273.18429
296.70154        323.38292        307.97327
296.76384        327.57342        295.34020
295.29308        328.77233        314.56079
294.05738        329.40265        341.35204
293.04393        332.55114        270.65317
294.26022        336.70325        313.53837
298.10782        334.16833        319.39414
294.13175        338.88286        284.42319
297.28297        343.16534        270.20061
294.18066        346.81259        277.75409
297.32701        341.81472        324.72800
295.93226        342.56426        339.10431
297.52038        344.84577        343.49804
296.48099        346.68853        356.75745
297.04582        343.56430        369.02442
294.53233        347.42718        376.87842
294.37449        348.63363        308.63039
295.11762        352.04217        326.63746
294.21241        349.23637        334.35639
294.73523        348.60839        349.13355
295.85516        356.79038        318.99519
295.99101        354.64220        346.75854
294.76632        357.74951        364.64211
297.93350        367.26631        290.05212
297.69482        364.51452        356.71986
294.17048        368.58996        334.49814
303.88414        368.79880        368.39687
297.48901        370.34049        380.09283
296.72391        369.55573        389.32407
292.48185        379.08718        318.85893
299.53099        387.59801        316.44736
294.00038        389.19892        328.24554
299.27018        219.81938        228.80528
303.40842        230.33841        336.67829
300.27692        240.47074        346.65488
299.18107        239.76533        389.15894
299.02467        250.22478        245.93531
299.42572        249.83605        294.98159
298.80910        255.00951        255.08693
299.00718        260.18920        248.16316
298.95033        264.22657        239.95618
298.60658        270.18657        319.25415
299.71834        269.69168        264.60702
298.79792        273.35836        290.05645
303.06183        274.43491        310.04137
298.22647        278.30606        314.37940
300.58869        294.49719        308.17084
299.19386        298.61327        304.77874
299.11163        306.39266        261.83677
300.75605        314.52514        287.19269
299.54276        318.53963        284.34339
299.53576        324.29620        282.59322
300.63166        324.51267        312.78289
299.00102        324.62615        321.43607
298.73544        328.42364        266.13097
299.11182        330.41053        279.14891
303.83655        335.98554        264.06884
302.65823        335.76917        290.60647
299.18430        334.59682        336.76542
300.77757        332.78319        351.65580
298.63802        338.72731        274.32017
302.99800        339.78924        316.01214
299.19685        342.93592        285.01155
299.04319        344.08375        289.98092
298.45696        346.10360        304.31101
299.01784        344.60704        382.87136
302.71403        349.08837        271.79152
298.32074        348.40319        299.46125
299.49469        348.60531        318.55202
299.53758        351.89140        274.51610
299.24758        356.91541        280.53584
299.17232        356.18690        294.86213
301.82060        353.50020        314.37370
298.63793        356.75469        374.29433
299.31457        359.06668        326.84998
298.77911        356.99726        384.44166
299.52838        371.08317        324.46515
300.81244        369.28846        304.66586
299.48068        368.96303        319.36915
298.58294        374.32187        314.63504
305.14049        230.54389        329.33204
303.00210        231.07705        344.35976
305.29560        239.70030        357.81784
303.99098        244.85780        368.67559
303.37312        246.21682        379.73332
302.83228        248.19384        254.28216
307.48137        251.35661        293.73348
305.30305        261.49641        298.71482
302.44723        264.79521        243.84154
306.74108        265.25766        314.44769
304.49264        266.54902        319.19370
304.63409        268.40792        254.69381
302.69590        268.73063        260.04808
304.06821        278.34815        299.64189
304.51108        280.03924        314.48596
304.84167        282.62464        320.58390
304.43314        286.63448        252.89093
309.68760        286.31238        294.97817
306.66279        284.88744        334.82687
307.42493        290.27765        241.35205
307.79043        291.01709        282.61576
309.62619        281.98865        312.29200
301.62003        289.99404        335.03708
304.28459        296.24971        253.94107
307.88503        299.00963        246.09332
305.27360        299.28080        270.48562
304.00807        298.68651        284.42948
305.17847        307.81006        291.14010
307.25826        304.36107        297.13106
304.90991        308.68969        255.21312
306.01899        308.82177        264.86531
306.94765        307.56822        269.84742
302.60671        306.94579        283.66634
305.77317        316.59659        273.95678
310.00758        318.01941        307.97270
303.73395        327.50143        339.64889
306.70906        327.44584        272.77788
306.31214        334.60543        299.08599
308.00877        332.83841        308.71833
304.10319        336.63325        328.90187
304.30460        339.04286        344.53906
302.80449        340.31984        387.55805
306.16651        346.86152        341.78948
305.96609        347.38954        373.28478
302.59000        348.36490        264.93002
304.12095        349.18299        280.33229
306.63096        352.13958        289.79978
305.86866        345.82887        334.31408
304.49336        356.17460        304.66285
304.02531        354.19688        359.22697
304.30490        357.75810        368.97159
304.63418        354.37964        384.06349
304.84764        360.87417        295.07692
303.89198        359.28538        343.97606
305.68325        362.85919        354.49837
307.76144        366.90652        284.56123
304.22571        368.65685        310.50415
304.75457        368.52532        358.86552
304.55319        370.21837        389.02471
304.63614        374.46845        379.02211
303.99240        377.44823        302.48668
304.36188        377.57948        311.21035
304.11997        379.47693        324.10465
303.83919        386.64564        325.57897
315.28899        232.48737        295.91272
309.12159        238.26656        297.08484
311.57432        240.11570        304.91424
309.27271        244.53738        308.71291
308.85328        245.95358        374.47782
314.44602        249.17512        307.26090
310.34873        249.46092        359.05904
308.57729        250.17711        384.09001
308.92876        259.64664        303.98784
311.70217        260.57987        317.92361
312.22594        269.26124        269.12910
310.27663        274.36021        282.72563
308.46975        272.00734        307.05615
308.58352        270.51020        322.57131
308.22479        274.78717        259.67599
309.40226        280.82764        249.63743
308.76213        280.48762        328.69344
308.64293        284.25953        233.97383
308.29071        284.49652        303.99235
309.02517        290.28845        326.59280
309.03187        287.49726        343.96800
309.53050        297.81319        231.47693
312.42805        297.78365        308.97010
308.44724        296.77073        319.17007
311.81611        294.99850        335.16345
308.81163        298.75282        298.95027
313.12112        304.82341        243.75585
308.88673        302.72500        314.48458
314.93477        304.51095        329.04688
310.26469        314.34800        328.27459
312.37488        319.12815        280.16509
309.71897        319.06986        289.96899
308.80826        322.80651        341.93338
311.06238        325.86791        283.22154
308.79706        327.45893        297.33882
307.97147        336.74202        273.40258
308.81949        335.88385        282.56588
311.83519        335.26003        333.67751
308.94642        339.00120        299.32993
307.60091        339.18390        322.58993
310.93736        343.58265        274.51558
305.73253        342.87464        280.24625
308.90850        343.33099        292.64085
310.69939        344.06932        301.88191
309.07261        348.95753        319.20771
308.99940        354.18336        270.54438
308.85545        354.94613        280.59229
311.13772        359.86969        303.64439
308.74651        354.36136        334.43076
307.07872        358.37759        319.46910
310.72593        359.12641        328.51229
309.01765        363.94136        292.52908
311.04691        366.17711        338.91742
310.46632        368.96824        300.46870
310.57583        369.38728        312.50988
308.59484        368.62597        324.16615
307.35560        369.01314        329.18994
314.49781        376.89054        336.58532
310.58240        379.39425        316.76791
311.15913        378.24809        326.00964
313.61679        233.49096        305.32101
314.69208        228.35452        338.91539
316.32868        228.39441        348.81834
311.65512        235.11287        344.56851
314.10765        234.34824        364.08750
318.01673        242.13257        353.29338
314.46174        244.52513        363.11723
313.24536        243.86747        389.10207
316.81638        249.79918        374.34150
316.55510        250.61847        290.09020
316.39958        260.21842        264.38592
314.90478        258.69082        294.45255
315.58668        273.45108        292.26257
313.51168        279.02887        244.15800
317.52619        286.26375        235.39325
319.73034        276.38120        251.03003
314.39414        278.21671        279.73184
311.24618        279.77336        289.87328
314.81883        282.04866        334.76329
314.50516        287.26072        285.10450
317.34451        288.22396        260.23595
313.09348        290.72445        319.16888
317.45081        290.42245        327.45605
314.83998        289.84731        347.16584
312.51880        294.88131        234.17238
312.61337        294.72342        239.95986
315.82459        296.66731        245.35269
314.95834        295.02535        254.73684
316.94720        296.33203        263.38878
314.38343        294.28171        304.16560
314.39384        294.01929        342.77548
313.23768        297.30070        290.15786
314.90136        299.07597        324.48343
317.46127        298.84066        337.35366
312.76288        304.40931        255.00061
314.01420        303.92570        300.44401
312.61106        308.97101        282.92939
313.94460        308.97911        292.52697
316.64453        308.90224        314.77793
313.66566        315.76770        245.83937
315.94089        314.15999        261.53840
315.80070        311.63980        298.93603
316.65460        313.46228        319.21979
314.69800        318.69274        254.51660
314.18094        316.89191        274.45235
313.56970        327.06967        264.10026
317.64268        327.85535        273.99180
316.12647        323.86924        297.38282
316.71402        330.48903        303.83096
312.68945        329.07623        342.95167
314.42961        336.82934        254.37510
316.89338        334.22739        262.61134
314.50289        334.35795        282.14439
317.47949        334.58767        294.86591
327.50711        348.35473        348.34494
314.68616        344.36709        286.70995
315.62630        346.63050        326.55027
316.06813        353.11387        282.24594
317.78023        349.34483        291.11353
313.05499        348.78892        303.14023
314.75714        354.51157        338.78966
317.95558        357.11437        262.52539
312.81692        358.94605        284.01448
314.84326        359.44605        294.45917
314.53867        359.18202        319.03740
315.13380        366.40173        344.27243
312.54219        363.94627        359.30729
316.93983        367.48720        328.63567
314.06071        374.88818        298.54311
314.82153        379.27607        303.95042
314.58749        388.74855        314.76458
317.48010        395.49305        319.02660
314.68525        398.37573        312.80795
318.90152        247.47000        257.72857
319.59903        249.96522        250.53184
319.40826        254.52370        298.96859
319.19390        254.86907        311.55364
318.71457        263.56555        278.94527
318.53112        264.60394        229.79992
320.98964        270.40651        223.84262
319.07517        270.32933        236.38271
322.95412        267.05676        297.88750
316.77903        268.49843        308.88528
322.39269        279.72937        229.10614
320.65680        280.32512        320.99158
318.73796        279.94296        329.15043
319.16253        284.25855        246.24718
321.60532        286.23517        253.71116
319.74902        287.47590        276.95708
320.22541        290.36518        294.51600
318.66686        289.93530        304.36548
318.55959        294.43943        284.53046
321.03532        293.92978        289.85005
319.04237        295.05596        323.95387
319.12242        298.78353        318.37487
320.08227        306.75326        245.96080
318.44486        304.06546        287.60842
318.22214        309.07573        306.72440
316.88031        314.37811        268.66896
320.39991        316.71832        290.06989
323.02612        317.77952        276.91883
318.91264        324.46268        270.48555
324.13330        328.40974        282.23127
318.55379        334.56671        274.60998
318.92952        339.76556        304.53044
319.07768        339.58084        314.71887
318.40576        346.81534        252.91855
320.60359        348.62575        265.31589
319.10624        346.47390        284.81576
318.70831        349.15111        333.07058
320.76180        350.34135        360.65699
318.73171        354.76449        254.14140
318.89387        354.38642        294.42499
319.11851        354.89983        308.99843
319.13996        353.94365        314.43592
318.79326        353.74028        351.96914
318.74065        358.43932        324.66760
322.30802        358.73659        341.48819
324.04299        363.86660        306.83561
319.26080        363.71998        316.91414
319.09275        364.68716        348.25564
318.95070        370.76480        299.28104
319.42859        373.69717        305.99806
321.58914        376.32879        327.97575
319.31879        379.34681        314.25895
319.04319        383.12260        302.55577
319.18969        384.53618        316.69668
318.30983        389.19611        322.93125
323.17169        188.75501        278.84270
323.96922        208.41186        332.90190
325.09700        215.04737        319.24931
331.53815        220.56136        319.57031
324.15190        222.45379        337.35518
324.36667        220.09014        344.37137
324.66003        229.17503        296.18540
323.94095        225.30047        327.81705
323.89577        240.26318        355.12535
324.36875        240.33667        369.23841
326.50442        244.44926        347.42419
324.54808        250.22505        287.17823
324.59927        248.96565        359.31978
324.76623        254.80593        285.00506
324.31525        256.53664        308.49317
324.93843        261.98895        269.73884
324.18833        269.66849        234.79808
324.01266        272.20586        287.55484
328.75971        275.26555        312.79667
327.08520        278.40808        317.36840
325.27553        279.82537        220.42976
322.74340        278.67954        280.61966
324.46816        282.41871        308.69664
324.77249        279.81884        334.67645
326.63017        284.79686        244.61405
327.17399        287.59973        280.77561
325.59744        292.36643        263.40832
324.60463        290.17407        312.39998
326.66988        288.43199        339.08402
326.01475        294.27749        239.77830
326.83976        294.71650        249.75547
328.01885        296.74203        275.70967
325.16998        296.85137        304.26266
327.05952        295.39875        329.45567
326.91709        299.90543        312.89957
324.15290        300.83344        325.18410
327.30570        309.17298        239.63375
324.25931        306.95572        279.95980
326.45628        304.18751        299.51032
324.67175        304.35331        319.02732
323.91234        309.42133        259.69839
324.78802        309.10713        304.57425
327.41455        309.18067        317.45749
323.53685        316.49051        324.28362
321.23846        319.24186        255.25007
324.27610        326.93631        257.18725
324.90781        327.89794        294.63848
325.29486        337.55991        257.89822
324.32374        334.33818        272.69973
324.58203        334.55139        309.09587
327.58447        339.84208        297.35098
324.76587        339.41565        348.86336
330.56722        349.73057        257.86062
324.88827        344.31229        280.64213
326.59807        347.64286        325.50496
324.25761        344.26771        339.15165
326.78677        348.75265        283.61492
324.56073        351.85948        310.16796
325.74974        357.25015        263.35235
322.69970        352.55765        318.91692
324.40371        358.90134        356.19049
324.09257        358.37020        284.85580
326.50219        358.82026        323.36832
324.67317        364.26624        351.31379
324.68148        370.57902        296.04019
327.58923        368.84409        317.36917
322.22521        368.80895        336.72210
324.76861        374.08546        320.70681
324.43740        383.19767        304.80235
326.25714        386.94908        324.85273
324.28396        394.87760        316.61723
329.39921        215.05289        326.78299
328.55150        214.94205        348.28601
328.82940        225.77485        314.47788
329.13389        225.14940        349.31312
327.30277        230.14693        348.26704
330.34833        242.95296        295.73979
328.37902        250.25583        254.51262
329.01017        249.93035        284.86044
328.48916        250.07767        301.87493
328.23163        259.61017        284.91756
329.25034        260.17548        302.74832
328.70709        265.87933        232.12211
333.13918        262.74019        274.33366
330.74009        264.61609        304.93475
328.99063        271.72658        250.39992
328.34652        268.32625        295.88666
328.62751        274.52480        236.52335
328.95350        274.97515        284.91985
329.36957        280.08117        224.10150
329.43955        280.60319        329.38590
329.56161        286.35959        260.26206
328.98015        284.61737        304.69854
333.58843        290.13287        304.46656
329.44309        289.87075        309.53397
329.23005        288.53246        318.87764
330.36826        289.83160        344.53039
328.82311        302.50147        256.08993
329.26612        293.90113        313.05191
328.87425        294.85394        334.57596
328.24206        299.00770        299.29890
329.01069        304.41108        308.43176
328.34841        305.57318        327.46767
328.50597        309.04173        269.77856
329.82119        308.86079        295.14612
328.89544        314.92511        248.44547
331.78225        315.79165        264.70008
329.72061        314.21633        316.80777
327.14344        318.73467        294.96730
329.38004        324.98833        324.08067
329.33240        328.75261        260.15062
328.82304        334.01976        254.71347
330.68931        334.16544        264.56171
329.02299        334.63339        274.47699
329.43357        334.65811        283.92702
336.88297        336.98135        288.46670
329.22528        337.60713        316.80640
328.92207        344.13352        268.24753
331.95622        343.43496        304.05404
328.72777        348.44192        314.88006
329.11232        354.57434        330.85852
329.54032        362.06861        300.31143
328.78673        360.60996        338.30356
331.32802        363.30017        359.03622
330.26427        369.34107        328.79409
329.33589        371.04632        337.21868
328.44518        367.19747        348.82320
328.75988        373.77114        298.47169
331.81332        376.10944        304.45397
331.29853        377.79135        318.59175
329.09654        382.96915        314.82255
328.83321        389.32539        311.54261
330.18051        394.76278        316.67231
333.57897        214.24081        341.05543
332.88648        226.09688        329.26171
334.06044        224.10057        334.58356
334.10182        239.64487        348.24368
332.77239        239.68443        358.45602
334.32498        249.76652        283.10108
333.98915        254.88793        259.63440
334.55600        254.42681        294.72784
338.03029        252.55796        308.45013
335.98040        261.66980        285.56341
332.67225        258.29251        298.95108
336.36734        263.58117        228.60627
334.68021        266.30332        294.55602
334.88482        264.42520        324.55997
333.59883        272.10402        304.08045
332.67459        268.53090        312.59021
335.48298        274.69301        230.61808
334.53167        274.56395        252.36384
334.68015        273.18179        286.60550
335.33933        279.22548        326.48929
334.01524        279.71948        270.55808
334.00239        280.41844        308.40716
338.21014        281.36290        317.22499
331.36888        280.03606        334.51905
334.75943        280.52873        344.62399
335.94337        284.46993        239.86814
335.91030        284.39666        281.98807
335.97388        283.73054        338.77584
336.71334        290.04474        219.90839
332.65101        289.72466        224.49250
334.22158        290.30316        247.98119
337.66820        290.01760        317.60431
334.02946        294.48627        229.96284
336.52343        297.17026        259.80957
341.74517        290.30229        271.30521
336.61001        295.66418        310.69991
334.62473        292.68444        329.18388
334.01332        298.86333        244.94878
334.21110        299.01091        270.49955
332.48196        304.56059        243.91858
334.76236        304.61591        270.10292
331.57277        304.50172        278.57025
334.37719        304.11558        312.83356
335.35557        308.47519        239.03016
334.43125        308.99781        250.77648
335.14955        308.20169        264.33606
334.39557        308.82796        277.30245
334.50254        307.14600        298.80792
335.35986        313.32331        247.88209
336.80164        313.74658        277.25121
336.42444        324.42614        239.21609
336.61038        322.10384        254.48554
338.92602        324.28496        264.32603
335.56246        330.42201        252.19841
335.89072        329.14173        261.57581
334.83190        328.39428        274.08250
334.91604        329.49787        290.25514
336.36855        334.23641        259.97167
332.89983        334.06519        322.52830
336.67120        341.31769        323.84730
336.93988        341.42028        348.85920
341.10286        340.52741        262.65468
334.54048        346.72951        280.26206
334.59949        348.92863        274.69824
335.23507        347.88229        335.90237
337.73904        354.31434        274.57676
339.89422        353.14638        282.21672
336.61137        355.89915        320.99955
335.81241        353.58202        364.15254
335.95630        358.92041        328.80865
334.46192        360.77496        334.21851
334.58499        369.24442        304.32239
334.46439        369.08607        324.78820
331.51664        370.40806        344.50678
336.36938        388.82341        321.97559
341.77191        198.12037        318.57970
339.25309        204.01515        309.46137
338.80897        207.27408        324.42574
340.95486        217.19513        327.94346
338.91661        234.62846        338.46517
338.82033        239.87890        339.18046
342.64131        244.56601        317.94119
339.44129        244.76167        330.36579
337.24626        244.67495        339.45394
338.72203        250.27817        290.53230
339.02156        252.31172        322.65534
338.24353        249.74973        332.50891
338.83223        250.02420        340.69339
339.88245        257.26830        329.28880
343.62718        255.85670        298.79138
344.94253        253.71085        315.39172
339.49765        264.93694        219.65613
338.95665        264.70465        279.82659
341.08241        262.70761        308.83094
340.34089        270.25816        219.91466
338.63469        268.43879        321.58413
338.71624        274.89071        224.69267
338.88279        274.09532        333.10728
339.11013        277.28707        254.27572
341.91499        277.87509        265.43710
339.40900        280.39827        335.02883
341.39910        284.99594        220.96374
338.96927        286.11201        234.73216
337.02969        284.72227        304.37668
