289.51416        303.66584        318.49261
290.09848        310.76794        240.20175
294.14289        307.90396        271.30872
290.10122        308.28297        279.69464
289.79755        309.98742        346.86688
293.19674        315.66270        209.44099
294.45226        312.91396        234.32424
296.12764        316.79673        289.53355
290.57133        320.98380        235.42920
291.57133        319.34264        282.20737
289.93269        320.73688        297.27396
290.77895        324.32062        314.81583
289.57642        328.52653        269.87671
290.04776        329.51224        319.01288
292.74888        326.80002        339.63287
289.73895        329.24008        384.40985
288.36906        334.04370        309.40387
290.17830        335.31509        319.80071
288.77836        336.60324        338.96973
291.17020        334.29638        348.87809
297.04160        338.33197        326.69537
289.99988        344.13062        275.06250
290.03293        344.28757        299.17752
290.13202        344.85519        334.61578
290.61736        344.32623        344.76254
293.50582        342.62541        355.52252
291.28801        346.04458        373.83437
292.28647        349.29516        349.09288
296.86711        356.87208        337.53272
294.58906        354.78678        365.28132
297.34820        354.59570        358.05313
290.00505        359.04486        376.84865
296.78375        368.18474        377.87333
294.56171        369.05876        386.70162
294.10391        379.07886        299.15963
293.51178        393.13255        308.75127
290.18591        388.73826        315.79795
290.24618        390.61675        344.31342
287.20617        398.96675        298.26102
289.78992        398.82325        324.26315
289.85519        403.24083        343.23127
294.77563        214.42351        245.16050
294.70764        214.59897        250.24833
294.91528        216.43165        409.10198
294.18958        219.90852        249.60844
297.75240        220.30113        404.77523
297.94958        222.42323        245.42969
295.06180        230.34384        368.29783
293.96659        231.94818        398.89872
296.89072        234.54299        359.33159
294.42539        243.50380        346.72854
296.39856        243.67494        369.03877
294.95444        248.21737        402.90239
294.91864        259.97554        262.24696
292.55174        259.75656        308.38154
292.86738        264.86661        292.74623
301.78183        259.86870        304.53607
295.10592        270.76046        260.46948
301.07119        273.36678        314.30049
294.49855        282.68487        204.61978
294.86955        280.32969        247.51498
298.84451        281.11650        253.51898
294.66972        286.78417        316.68291
295.14328        285.23803        329.26261
294.43567        290.37539        332.91833
296.95412        296.75013        224.78778
293.49279        294.76979        232.06299
297.86544        297.52668        278.45295
295.20852        296.52543        319.93448
294.42466        301.02172        202.40666
294.58411        304.37515        244.36237
294.77563        304.36121        284.96142
292.97602        304.56751        309.08417
294.73144        309.06238        208.57704
295.04517        309.04740        292.86377
295.89715        316.03482        219.46088
294.20407        314.03809        242.12050
294.22340        311.52930        264.45896
292.81795        311.37353        354.67727
298.62362        321.16414        203.99946
295.01755        319.06262        328.34992
292.72975        319.42053        334.91378
302.16936        324.39827        212.01890
297.56876        326.79295        270.20329
294.77998        326.85596        284.78392
295.00296        326.78906        298.40692
296.11625        328.26184        214.61112
296.73745        328.85602        233.13854
294.67532        328.67823        274.50943
299.73254        327.22283        316.46675
292.64560        329.54013        344.00177
294.30861        336.80661        274.68100
294.29144        338.30903        312.66818
297.72232        339.50313        339.94426
300.14296        343.05033        367.92164
295.20794        342.36634        378.85732
294.64224        344.53851        304.86154
295.01271        350.44109        318.84422
296.17777        349.40606        326.05613
294.21095        348.66816        336.61905
294.25070        348.97712        364.29163
301.16048        352.40660        379.79474
294.92563        356.86065        374.28747
294.60190        363.00512        316.13206
298.22213        365.74220        361.54173
294.00031        369.21857        314.02054
294.07475        374.69189        315.22068
297.56170        380.93881        307.07625
292.94720        378.92740        318.83372
293.48837        383.51233        323.67131
298.64710        200.11744        264.54581
298.95130        204.92412        250.13344
299.38156        205.65367        399.40662
299.48669        204.57909        408.83326
299.18451        210.40391        245.09025
298.68546        214.91607        405.02957
298.16642        228.64187        224.52106
300.16609        230.97900        245.32233
299.15230        232.22509        408.50979
298.20370        235.05443        372.77721
300.72805        238.76887        250.87737
298.45530        240.08156        347.05244
299.49503        239.98927        354.52658
298.55988        240.31024        404.46042
299.22360        244.48178        302.51006
298.95542        257.68200        298.41039
299.45319        255.07141        304.53256
303.62594        265.88280        273.92638
298.78805        264.84677        310.45551
299.26021        264.72336        320.87454
298.34516        269.84231        264.19626
298.88830        270.24153        320.34895
298.18430        274.94855        204.91469
299.47733        274.98666        214.94397
298.71201        274.41184        260.09784
299.45071        277.54754        298.56566
298.69449        284.77481        200.27940
298.55689        284.44144        208.07626
305.35515        281.52885        321.23689
299.35034        288.46580        244.74087
297.19253        290.07416        254.76484
299.00281        290.11368        285.24994
298.41190        289.85498        319.59457
298.78631        296.91258        254.63713
299.23131        294.76663        292.47493
302.13721        298.32830        232.72357
298.89856        304.20770        210.20424
298.62473        309.25891        298.26368
299.21997        314.75610        274.96319
299.05228        314.49051        299.14279
299.29263        312.72107        315.77398
298.86719        318.36219        210.04471
299.15573        321.87149        239.81709
299.82011        321.00410        265.52279
298.75824        319.35379        322.54586
299.41660        324.74939        220.04069
298.89212        324.77426        230.19662
298.98114        326.01200        295.37802
299.39826        324.12876        309.18750
299.68108        329.72175        241.14021
299.51602        329.17343        349.40738
304.54328        336.79503        269.65863
298.47480        334.53970        283.95102
303.28684        335.53230        344.46898
299.29700        338.40766        228.95721
298.96225        339.12583        270.06219
298.72065        338.64042        279.86639
299.27860        339.36557        384.60434
299.03403        342.85709        274.87336
303.02385        343.04335        299.06464
298.35834        344.45844        308.38172
303.94061        350.46734        309.28093
299.11558        345.67081        358.96912
298.86673        354.49360        316.08751
300.05507        357.52462        326.09995
300.36592        358.72119        370.36500
298.56739        365.95943        327.20453
305.52382        371.87186        298.96807
301.92456        372.10810        309.14731
302.63270        369.18445        317.44012
303.42336        384.38715        316.07898
308.79766        191.91655        286.15337
301.62313        197.61709        250.23090
307.96912        203.06466        289.52562
304.58172        211.61330        254.45118
303.63218        214.78384        242.53596
306.16075        221.60861        410.60548
306.59410        222.80680        245.69711
305.80026        228.31690        233.45253
304.98760        228.34543        255.58285
309.09194        234.86841        346.09092
307.13474        231.16525        355.47968
306.62054        230.58249        366.13840
309.41154        231.82189        401.26964
304.33104        238.05863        359.02123
305.91434        237.04807        364.59806
307.37306        244.38158        297.58267
304.36206        244.04996        374.01480
304.17133        244.06897        404.63345
304.01828        254.64528        274.25382
302.91090        254.80597        384.06528
303.04917        254.18776        389.63559
307.42624        273.16231        220.77653
303.97705        264.91574        240.49394
304.64717        269.50646        251.67228
307.98834        262.58627        291.24538
306.26933        272.90543        291.82392
304.32429        272.70741        303.47308
304.42957        274.97592        234.57489
308.35668        270.77309        323.31200
304.33906        280.22308        213.37885
304.94119        280.03009        219.86351
303.61425        281.46709        264.71041
306.40604        282.49259        287.51526
306.05118        282.43862        298.14715
305.79110        282.98078        334.54116
302.50284        284.79794        204.13428
310.06936        282.09391        255.64967
302.78741        288.48009        208.37734
308.61535        292.40171        286.91892
306.28632        289.89459        299.42691
307.11232        289.89122        307.16938
308.35296        291.94139        323.90310
303.02031        294.21280        204.60451
305.99568        299.83071        263.51722
306.69614        294.49069        270.03178
306.04861        299.06105        297.29730
306.13778        304.19739        272.81106
311.36543        305.69573        331.99313
304.76926        314.64712        213.79329
303.54788        317.27165        272.58370
305.00184        316.23222        281.96089
302.62200        314.75900        294.81137
305.77241        317.60470        312.27979
306.36318        318.50715        234.45632
307.79851        317.59794        298.67941
308.93154        323.79046        341.02852
306.59017        324.26700        230.14321
304.86667        324.27905        265.12103
304.50006        324.43210        279.85354
303.73951        326.31047        327.24299
305.94834        328.88342        221.00961
302.98001        327.37571        248.28828
309.10034        327.57441        273.75592
308.20314        328.04378        294.16112
306.83121        331.59482        306.95474
304.19040        332.64967        214.71496
304.27724        331.55272        230.38212
304.32311        338.28420        284.57877
311.43840        338.30904        290.74008
305.51119        334.42473        316.44144
304.41643        338.77672        380.77765
307.66476        344.66177        271.73038
305.21157        344.39127        287.06977
302.04961        344.65428        314.65001
306.55484        344.40445        334.42018
304.48244        346.58947        342.79305
304.53699        349.09607        279.71393
307.48054        348.91258        287.02668
304.42783        351.80144        294.27596
305.89012        356.87499        279.91140
303.96479        354.49576        329.05683
304.00168        354.94641        364.41623
308.51196        358.34092        291.37130
307.72908        362.50453        354.44830
301.35996        364.89114        318.64795
309.71029        363.89584        335.96964
304.44339        369.45438        365.48760
307.49999        370.97460        384.96655
303.52956        376.87042        314.28954
305.44580        381.09967        324.29469
304.08972        379.32398        348.89835
303.14988        383.22721        284.56046
302.71933        387.43461        322.49199
316.04853        174.75780        267.83947
309.56409        180.45521        283.94770
315.20205        192.21148        264.32320
317.80864        205.26706        258.56875
308.44874        209.68642        234.97783
309.16342        209.92634        250.38331
313.31880        216.78195        263.18232
307.12782        220.16542        237.21611
308.54111        219.92724        254.56364
309.47177        218.96081        289.76810
308.77965        226.18225        348.72984
307.49231        224.69392        399.55463
307.41330        230.67072        239.85865
308.17182        228.44000        249.83804
316.15097        230.84744        297.35093
314.35136        240.90318        309.39355
308.68598        234.04267        368.58460
313.40038        234.75856        385.34867
316.68604        243.30895        374.80543
309.21933        254.00160        306.76203
309.10968        254.41924        322.47456
310.45195        262.07634        259.92704
316.90742        275.59245        213.93366
309.10602        274.20297        239.95370
309.37686        274.25525        249.80960
309.08051        277.45325        329.24164
309.47183        279.90838        304.03806
310.20667        281.26933        311.91184
309.41846        284.69693        324.32086
313.67134        282.49281        329.07268
309.54191        285.12761        346.17218
309.31992        290.67111        254.49727
308.84369        297.62106        216.05828
308.87937        295.09808        304.57150
308.91785        294.51273        314.31272
308.90066        295.73833        336.05318
308.61811        299.45071        255.25286
308.59586        299.36856        289.88324
313.66993        297.00669        324.59966
308.58167        304.73859        214.25977
308.40418        304.21009        219.56250
309.21329        304.06961        236.12065
308.67194        302.66018        280.28979
308.57358        303.96872        285.24057
310.53739        301.83683        318.86384
310.75112        308.95103        307.70332
311.76929        314.17330        274.14540
313.33969        312.41831        327.30478
309.92001        319.09961        222.01895
308.80463        318.18229        239.80800
317.55613        317.21984        303.51135
309.97207        333.28725        262.52671
315.85922        327.94613        282.16881
315.16386        336.32944        299.98178
308.90096        336.06289        322.85066
308.99848        334.75445        329.13382
309.36398        339.19071        280.10043
309.02509        338.79575        334.01822
308.50068        342.88304        264.68420
308.80271        344.62845        280.07821
308.45993        347.45151        320.50380
308.93183        342.54048        344.32645
309.07580        350.41706        334.25260
308.73581        354.37985        318.49137
310.38016        353.87466        343.14028
310.70010        359.22150        364.21521
309.18427        364.35614        282.36619
308.92624        365.37810        324.61277
309.56499        365.60672        368.55565
309.44321        368.75495        299.09287
309.47452        368.87476        309.20566
311.98912        375.07099        326.18428
308.45988        371.36292        354.92626
306.91837        374.82346        376.61299
313.12452        377.48267        317.36473
314.47786        174.89506        277.37453
315.73959        181.78046        275.50569
316.66876        184.73328        280.13243
315.84415        193.20440        277.17926
317.53180        189.94764        285.59939
314.54956        194.11307        269.89694
316.39685        203.55930        283.10749
316.54805        210.24886        259.87256
317.48887        211.27735        273.99349
315.09559        210.82824        294.49281
312.83479        208.65938        408.81406
315.72803        215.30372        250.69359
316.72921        220.50627        403.78991
316.16026        232.26066        306.77810
316.24596        226.65798        347.28883
321.37752        226.21118        358.97487
314.87341        234.05239        374.33368
314.40319        235.44971        354.54363
314.42361        238.29067        403.24868
316.02276        245.01767        295.02497
314.80163        242.59467        394.13891
317.00821        252.25488        252.92582
312.94500        249.85062        298.44797
314.54156        251.37431        309.94581
316.78981        254.12016        244.75969
322.05740        253.23926        300.73443
313.75382        259.01836        319.68520
314.30371        260.22952        292.64290
313.18826        264.87985        238.87427
318.00470        263.40483        271.83531
316.56903        264.82027        308.74724
314.48580        271.54855        221.26046
314.54434        269.03527        262.73251
315.04446        269.82078        282.77630
316.22622        279.01282        235.07245
318.10469        273.65898        249.05930
313.93460        274.39966        270.41125
316.62212        274.18436        294.60168
315.86417        281.43271        298.80980
314.70035        274.53233        315.86630
316.46230        278.87835        336.28149
313.93622        280.79476        274.49634
324.09975        282.58251        222.00353
316.76832        285.65841        241.17469
316.56857        283.42504        280.58766
314.62741        286.45299        319.23187
314.44681        287.43104        348.53064
316.72866        291.69175        233.31117
314.19425        292.64006        240.09343
315.78082        291.50443        249.18231
317.38280        294.49135        315.91408
323.68045        293.02368        336.37725
313.45686        296.70957        269.93251
314.66981        294.19354        296.84058
314.51215        294.39938        308.91288
313.96152        301.38336        296.19683
314.33673        304.65512        254.90898
314.09122        303.93314        264.74991
314.55690        304.15505        271.43213
316.95102        304.34097        282.31805
314.69892        304.82409        301.55932
316.66010        309.44775        319.19471
314.52597        309.16126        288.33631
315.06161        314.94656        263.84613
317.04946        314.52871        281.93109
314.36601        316.77815        290.35223
314.15039        318.90100        214.95735
312.63588        319.05083        272.62426
314.86861        319.15649        282.52346
314.64563        324.59961        230.03741
322.47827        330.90336        296.99490
312.86452        329.06165        224.42432
312.46889        328.52646        238.62547
314.11944        327.64134        308.52270
315.82168        336.81025        274.40310
314.16266        334.23634        281.83031
314.66214        334.21060        309.22882
313.97193        333.92102        334.08063
316.77408        337.78432        342.57919
316.53667        347.16051        290.26781
314.22324        344.05951        315.04284
314.58473        346.53591        324.49205
314.44716        344.32600        341.23727
315.83578        348.75486        270.00141
314.43115        349.31259        279.87948
315.66078        356.48829        296.86509
314.33066        350.24255        336.55358
314.40619        356.52201        328.74389
314.53315        359.99546        283.01844
316.41443        358.72318        318.28828
316.33771        370.05433        299.13381
314.34409        365.14016        309.16480
314.63642        365.94742        314.21433
314.81320        364.33338        324.66400
314.36081        374.46176        337.74351
318.39617        392.41303        318.09691
318.88138        194.79245        289.73706
318.39616        200.06495        264.58231
321.81171        202.26457        290.31421
318.24982        204.60626        269.94397
319.19940        209.83461        264.73172
319.34248        218.12909        328.84246
323.38986        212.15243        338.17989
318.93500        219.61568        259.87927
319.34443        222.47586        315.17952
320.63777        224.55878        322.49287
322.42096        224.60696        339.03434
321.44653        232.82149        322.15801
319.23322        230.26895        398.47153
318.56370        234.23506        339.41364
319.18262        240.77479        250.38658
319.48425        244.60669        254.24712
318.86028        245.58336        385.81097
318.93729        250.08418        304.25784
318.99216        250.26379        316.84203
325.27152        254.54962        268.59909
322.18917        261.88677        287.93398
318.50117        264.81125        318.22376
322.03613        271.18425        275.08073
318.34074        270.16098        318.41395
319.42667        274.17679        279.81952
322.40277        274.65234        324.25063
318.32987        275.03515        328.98972
318.52085        280.64254        244.70062
318.62238        280.97982        289.93213
326.10156        283.73790        315.81766
319.08412        285.05215        310.54863
325.81478        288.31947        264.00897
318.90167        287.30573        329.01236
319.00327        297.34324        255.33675
318.34852        294.20127        290.26355
319.20777        297.34362        305.88877
319.30716        298.53336        244.80034
318.62403        298.84247        284.04215
318.85733        299.81570        338.60526
319.28385        304.44019        308.99533
318.79877        306.38326        314.50072
321.52366        309.80403        246.24979
320.38434        309.86615        271.69105
318.93393        308.66507        299.42346
319.07378        316.91599        254.83544
319.16117        321.71884        274.78042
319.24527        327.13085        262.58955
319.47382        329.03119        254.80266
319.12915        340.52569        265.04925
325.55662        337.61195        316.00620
318.50825        339.24372        325.00616
324.25326        346.72432        347.25988
316.93935        344.54337        302.81526
318.85320        347.40678        356.86432
319.24030        348.56196        282.73909
320.73635        350.98952        304.60778
321.95999        352.21859        367.05116
319.42537        352.79900        265.88494
317.24476        354.56211        282.83567
321.99079        354.38362        292.46944
318.78500        355.07020        324.53352
318.81098        356.51357        333.42330
319.16956        355.61100        339.93675
319.40952        354.26761        353.24441
321.76171        370.51670        305.80455
318.73353        364.22571        318.96286
319.22251        366.46755        328.98784
326.93381        367.68076        335.73187
318.75412        364.33713        344.52499
318.97931        374.94894        334.26358
324.64790        379.28353        314.39262
319.22040        378.96350        324.23206
319.04758        384.86496        321.72246
316.85879        388.84379        309.06858
317.14238        394.39761        309.19136
322.12195        184.46776        272.89677
324.12180        188.33460        278.54337
326.92532        194.74306        298.94028
323.95630        198.47485        275.24017
324.06852        202.39467        280.08660
326.47695        202.68837        298.60598
327.52418        203.06339        334.70184
324.19681        214.87519        254.58165
326.84068        209.73656        298.62412
321.44713        214.68290        259.86228
323.89521        213.98040        264.60522
326.38309        221.87375        327.08865
326.06310        221.27298        346.58141
327.67161        223.59507        296.82579
324.69173        225.09576        308.71029
323.63689        228.09084        375.07039
326.53539        231.72837        295.50076
321.27185        230.51152        314.26625
324.12570        229.74535        334.36047
326.39574        231.27289        351.54295
326.17968        236.54856        365.78583
330.68848        235.99132        377.96609
328.24494        235.49400        389.65407
324.72439        234.30762        398.89252
325.71254        242.51291        252.59289
326.81117        243.10123        261.06003
326.11769        238.96799        398.46573
324.36154        245.05197        293.93628
324.15798        244.50343        306.69156
323.42520        249.95322        252.08813
327.60850        244.95310        373.11479
324.42738        247.45649        385.70815
326.95145        260.78086        236.99176
327.63433        254.01193        242.56353
325.69820        254.85784        249.96734
326.31970        254.05553        312.98694
326.25049        263.20517        253.68138
331.02032        264.10485        226.45450
326.27336        266.20834        302.82212
324.22913        272.76645        218.95392
324.46158        268.24003        224.54362
327.72429        270.85457        233.51872
324.10413        269.84552        240.52148
325.95686        271.90688        254.29210
327.72255        268.60625        292.50031
326.83179        270.06192        328.64385
328.37754        283.58120        237.46471
327.36418        273.22902        244.61721
326.80633        279.85954        337.33284
326.25250        282.69325        253.63114
324.44579        280.52812        326.88345
325.09671        288.05801        295.63278
324.43305        284.97156        304.62543
324.55740        290.33960        249.54961
323.38850        292.41859        284.25240
328.14526        293.19734        306.42997
324.13156        290.51055        314.44086
324.63989        290.03842        329.25800
324.48276        296.84830        244.41031
325.64883        296.72904        290.37696
327.95214        305.91495        257.37789
324.58313        307.06636        290.30850
326.09945        309.03560        307.85007
328.76486        306.48436        317.45932
321.77727        308.64188        264.43511
324.96509        308.80582        278.63068
328.12498        316.42168        257.10824
326.72130        313.99904        278.70803
324.64073        314.52470        326.05435
324.68668        318.72742        270.77038
324.12039        318.41050        290.02353
326.26452        328.10001        273.63905
326.85481        324.11594        284.62688
325.72162        329.77005        264.91305
324.29302        336.95409        253.92981
326.76109        338.35544        307.94877
326.60044        334.34639        324.46785
325.29572        339.12647        287.63562
326.65713        338.66114        348.13794
325.27571        347.69302        253.58300
332.61419        348.28635        261.64355
326.75246        344.24626        284.72003
323.65571        346.12462        292.99248
324.79807        346.80959        310.26812
324.31475        341.55334        338.99229
324.30564        348.98380        319.09818
324.31576        348.80097        332.55889
324.63849        354.06732        308.53794
326.70114        355.96875        323.01070
325.16729        354.38828        334.14292
326.78809        354.27697        356.67196
324.68890        358.72843        304.77713
322.13829        359.27103        316.50471
324.80678        360.78311        356.65604
326.65871        364.51619        348.99102
324.22824        368.70951        298.82267
323.96247        368.97232        324.47696
325.02385        375.90549        329.11788
324.60260        379.13932        300.50521
323.90149        384.11338        319.42316
328.41357        385.27579        323.57990
328.31001        391.68940        314.46128
324.63175        392.90700        328.93979
322.55528        403.24924        313.16511
328.32740        205.15962        290.17730
329.53574        204.94652        308.55332
328.89921        213.06040        307.17967
338.20847        209.21354        325.81237
331.78485        214.48444        338.67234
328.98288        217.36717        354.13372
329.19603        224.41224        304.63353
328.77878        218.14736        334.24561
330.51620        226.24493        336.81292
330.62171        226.40820        386.53055
328.72355        236.28009        264.62558
329.04534        245.15985        291.03231
329.32343        240.85764        358.44694
329.17835        244.71236        384.99878
332.98112        248.46325        262.26164
328.87558        249.86470        309.36676
328.88912        259.16681        296.03949
328.55115        260.00693        324.07263
329.04224        264.60370        284.68848
328.80220        273.09172        316.18407
328.92331        274.88156        257.36333
328.40961        274.35864        284.78876
327.85961        280.05173        304.72496
328.64905        278.77784        274.71500
329.53915        280.47814        284.43967
328.84269        284.17999        319.22632
334.92937        284.81604        332.30083
329.05432        288.99526        252.48640
329.58969        290.24194        280.13430
331.92253        297.33669        239.83195
329.42202        297.57915        250.82383
334.98550        292.46753        263.35569
328.93125        296.50524        314.67766
328.74079        299.46619        280.14755
328.54313        304.77075        244.43808
328.60789        305.34260        283.03663
334.24930        303.87899        297.35630
329.24405        314.34607        296.68723
330.95212        319.06235        274.66022
329.14458        326.61124        259.00318
328.84954        324.26834        296.85980
329.05616        329.32697        309.07074
329.02579        329.25372        314.50775
328.65555        328.66018        325.85858
331.70081        336.74731        259.60940
329.15839        338.72010        280.90395
329.22083        339.09217        328.56486
328.77552        339.21082        339.00742
328.70542        339.39969        358.39338
328.87366        340.94570        364.14337
335.76374        348.86050        319.92919
329.96583        344.98914        327.72994
335.99210        347.87664        347.78212
328.51981        348.50308        287.23412
328.50885        354.14461        285.93748
328.92536        355.07797        303.93915
329.27167        354.34619        344.83179
334.74193        351.54559        364.76298
329.33098        356.94713        299.15088
330.06805        362.10250        308.69199
329.10041        364.48065        314.21813
328.87238        358.98749        338.54310
333.50114        369.85667        301.94778
332.36638        368.32085        328.97226
330.38573        368.79319        344.81912
334.29719        377.35458        317.16894
328.82401        380.71317        307.72627
330.70315        388.68628        353.98178
328.72769        395.22044        324.03377
334.29016        193.30109        298.84771
339.03204        192.81222        311.20039
334.89657        195.04548        329.36307
335.40002        206.06985        297.52612
334.34931        202.27053        307.06125
336.76725        203.30612        335.30510
334.39716        209.94040        304.61688
334.51543        212.04604        313.39776
335.88281        210.20264        344.58572
337.00452        219.84586        308.64226
337.50614        221.47097        328.52932
336.33896        220.03716        346.09722
334.39169        220.45680        354.75180
336.12074        226.49865        308.31787
335.59486        232.18353        355.62276
336.09017        234.78603        298.69731
337.68599        233.67524        365.34925
338.51600        244.50492        288.26459
332.88324        242.30369        304.14302
332.91134        244.80887        250.77662
335.44925        247.36970        269.09403
334.78302        253.89064        249.70396
334.45801        257.23921        274.93916
334.27065        254.06932        288.15786
338.63856        259.00544        234.36057
337.22072        266.54303        253.58338
337.87186        260.22160        295.28983
336.98826        260.79992        307.33015
333.92218        264.87460        289.75741
334.68844        264.46673        317.04502
341.24133        270.51487        225.46285
342.04418        268.63521        236.71565
336.21222        269.70203        308.81008
336.04876        273.37298        324.69977
335.81857        274.39291        334.50235
334.56689        274.76114        229.58652
334.53183        276.36547        244.84927
333.13132        275.05259        344.87970
334.26872        282.25571        219.90244
338.00874        281.04779        230.81453
334.74120        281.76484        251.54848
336.24331        280.68709        260.24112
334.32140        277.04936        274.71102
331.55295        280.24940        290.17210
334.63654        278.23569        294.06082
334.23277        282.72383        311.97477
339.55484        279.41328        319.08459
335.76580        280.54369        345.03854
334.58610        284.66557        265.97556
336.11391        290.34459        275.54196
334.41773        283.01017        284.46659
336.85020        289.03380        252.20733
334.58060        289.84845        304.46518
339.20371        291.86960        313.44720
337.05025        286.73334        324.29387
334.67493        295.05237        255.20303
335.52037        297.94692        280.55231
340.39981        298.92155        244.39388
334.68307        301.02546        312.67242
334.54352        304.58258        240.51354
336.02892        307.36046        250.14191
334.08929        302.89488        256.94287
334.09459        305.34581        271.39530
334.69641        308.99985        244.94339
334.44559        312.67861        278.77588
335.64135        311.81086        299.00100
335.15484        318.65613        239.93812
337.76603        324.65935        264.10103
332.62018        321.80625        280.20622
334.43172        328.72394        257.93229
334.31992        329.31235        274.92807
334.87039        329.27863        285.03729
338.07193        328.64307        296.39054
334.60660        329.08301        322.64797
338.03790        336.71842        283.32710
341.23107        335.29396        294.36823
334.26111        334.13919        318.86029
337.49956        338.56192        267.30160
335.58529        340.05646        304.71553
334.13782        338.30961        324.88748
334.54774        340.28011        342.27241
334.41792        339.29529        353.01261
338.07620        345.48004        283.06674
332.58077        348.75232        339.51181
336.07463        357.20125        333.26810
334.44193        358.41218        299.25797
334.60135        358.76987        358.31052
334.02799        364.05106        318.43360
332.69212        365.22649        324.41970
334.60873        369.44736        318.21470
336.46004        384.88730        323.37354
338.66408        385.27759        346.48809
337.72737        395.43752        344.76889
340.12112        195.99501        324.20293
341.71958        205.43856        308.62829
338.60517        200.27043        318.74860
341.14275        214.59083        334.46176
338.25419        214.56149        347.24110
339.85628        219.65503        316.13749
338.56478        224.67341        342.98459
338.74024        225.13481        354.28125
338.52088        230.52545        295.03750
340.39250        230.14225        343.68367
336.85536        234.26458        393.12487
343.55107        244.41759        325.91985
350.96857        243.13690        335.61153
338.64940        242.19983        344.95512
340.73187        239.33798        368.92551
340.01558        248.69659        298.88878
340.02152        250.00398        314.77484
338.22153        249.82245        338.29063
345.73265        245.47185        346.00248
341.34098        258.33719        281.28078
344.48196        254.13318        324.36490
338.54917        262.57029        328.92687
338.48490        265.04388        334.39105
341.65699        271.81705        244.62563
341.29141        271.87427        273.92220
340.33794        269.06493        292.45677
338.40830        270.31356        314.40366
338.63746        269.93414        338.31712
338.24500        274.49332        239.88650
339.81403        274.34093        297.68787
339.42264        280.02035        224.29772
338.75051        282.23335        244.71959
341.37419        283.78617        280.90735
338.61874        283.85761        306.14075
339.16571        284.64505        314.01444
339.04551        292.69330        304.40179
341.50838        300.44792        256.06056
339.61667        298.83298        270.56506
340.60091        296.39530        290.05384
340.01554        302.19930        305.04428
339.19495        304.73657        244.04364
338.88230        304.06510        279.96060
339.13946        305.17687        331.29958
338.92612        309.15518        264.70254
339.21512        309.24610        279.91269
344.48404        316.99398        267.06758
344.31971        318.89967        241.10118
339.14044        319.10919        255.17863
341.10221        324.37459        274.42877
339.39916        327.09172        279.89966
339.27899        328.40906        254.73363
350.24224        336.37055        319.70653
339.71960        339.02875        274.93915
339.21770        338.59836        324.99026
338.71006        339.47128        348.76813
346.67714        349.39521        277.56498
339.25199        342.79927        308.85511
338.63834        344.20371        314.33774
343.21136        351.88606        327.90669
338.25907        348.76038        359.32764
339.70855        361.19900        340.33124
340.33496        364.72337        329.02203
340.64501        384.07038        339.08362
344.94025        387.40081        355.22390
340.93056        388.96573        300.57186
342.27179        398.53057        354.29330
350.47905        408.02090        349.23398
346.96323        409.74508        337.08568
342.77781        194.81284        319.28209
344.36954        206.81692        344.00972
344.68920        212.77737        321.07783
344.46664        209.93127        338.48850
344.22144        219.83114        319.58368
346.08527        232.50735        320.60811
343.98566        229.89252        354.13672
348.43297        232.58062        338.08589
345.03165        241.93979        309.90956
349.69062        243.22532        316.20135
346.42846        252.05934        304.57456
344.05777        254.73327        292.85585
344.14792        257.32908        314.32012
344.51642        252.51208        318.96561
343.91913        254.46271        334.89578
346.52280        261.51117        291.49424
346.81425        257.00702        338.29985
344.58633        266.58650        308.65381
347.78536        262.90185        328.94115
348.38461        272.33642        258.64578
344.34110        269.17025        317.02103
346.00056        272.56193        334.35134
345.24752        274.87799        269.68655
347.50373        276.61699        279.31572
347.93922        281.83582        223.90923
344.30177        279.94893        245.04684
344.44403        279.93103        269.65878
345.83598        279.86822        327.63360
344.08017        284.67480        234.13370
342.52202        284.57752        250.28802
347.55271        283.24350        274.60326
349.30256        284.85016        234.16234
344.77820        290.46289        270.27749
345.46142        289.78801        322.97974
344.34356        292.64825        262.67228
344.29068        300.87524        270.35382
343.95249        298.51145        280.26141
347.37447        298.14677        314.49589
346.97790        306.31142        265.87719
346.59456        305.66509        274.72388
344.27802        308.23588        279.88281
344.55498        324.66955        250.52554
344.61298        318.58198        274.22452
344.81586        319.46512        320.56024
344.68649        322.53213        270.03946
347.54284        329.09953        258.31598
349.59295        337.41843        251.38632
346.56816        335.88976        263.27448
344.04592        334.11650        282.51117
344.35761        344.12644        309.46121
344.19599        354.73942        336.41727
344.56049        364.15686        315.13531
344.78094        368.38605        338.78870
348.07311        367.98417        345.53756
344.80823        374.25452        338.87925
348.79147        376.63488        344.49690
348.98975        376.64732        309.47201
348.06413        378.72023        336.05870
344.55765        378.69718        348.79047
347.47080        377.72476        355.16493
353.86897        379.36212        306.48177
348.09589        387.74974        315.51546
349.07476        391.07703        341.22244
347.19173        396.87620        309.72142
349.19245        234.73044        329.28028
348.56464        240.07145        319.25418
351.49189        253.61663        290.84194
348.31687        256.35698        230.50430
348.94556        265.55507        273.96382
350.19933        270.71989        241.41316
348.82203        270.38970        270.11813
348.79596        274.45065        218.37663
347.13154        293.62040        253.19165
351.23976        295.31033        271.07973
348.89544        305.99019        279.77550
348.69632        313.03824        254.62411
352.04107        318.59798        326.38813
349.12894        314.61505        328.70432
355.80509        314.92375        257.51711
348.98800        322.87356        254.43647
351.11694        325.95870        265.25955
352.45409        326.92995        327.01674
349.09140        328.98453        248.12315
362.33040        340.25499        257.48568
349.69633        344.00171        316.72771
351.04271        343.39768        324.28557
349.38999        358.61100        293.89405
350.25142        358.77328        329.12130
348.67661        362.93026        324.61914
348.21555        364.28528        339.12772
349.22338        372.69650        298.94448
348.97206        370.68555        329.07446
349.40317        378.33863        294.96872
354.35399        390.99207        359.86356
350.63186        398.62284        329.07917
348.98210        399.29860        336.46489
348.86304        399.06989        354.57788
354.30778        408.17373        315.96500
350.15683        406.76174        324.94244
354.40161        188.87963        309.25055
354.25549        234.83370        325.91026
355.49335        234.56850        338.63656
354.71764        263.19337        289.16565
351.50220        258.99074        302.70382
352.73173        264.27510        322.76273
354.37198        272.52089        229.05125
357.36450        274.34225        275.42245
353.66080        282.61180        271.74162
355.54335        299.32514        278.73365
353.18055        299.44019        234.54283
352.64361        314.25776        238.81723
352.72434        314.89344        332.87083
357.12755        330.78382        250.47546
354.53134        329.15091        280.95788
357.77395        337.07620        297.93376
358.18570        346.97930        282.30092
356.57675        344.73273        290.02056
361.60979        355.82259        283.07860
354.12488        358.99137        334.62363
356.15209        376.68831        294.81417
354.48840        364.76501        338.68610
354.67544        368.03252        346.05379
354.49426        369.56897        354.36331
357.23698        380.23414        327.84224
354.38556        382.60431        338.82368
357.37277        388.43363        348.54655
356.56224        396.54545        325.63836
356.99558        396.49011        300.25705
356.72461        398.88881        339.11740
357.78282        397.22501        348.21161
356.91080        407.86764        326.99136
357.31339        406.11077        338.11659
356.34059        417.48922        329.19860
356.69122        417.63989        334.40102
357.53214        204.79825        294.61942
358.78470        230.23801        335.42594
358.29160        243.30151        308.83921
358.87351        245.13206        324.65930
357.06985        255.03206        328.62259
359.16915        266.25168        263.16290
360.21138        280.02641        264.65596
359.08066        314.06028        238.14228
363.63926        324.78817        257.29664
359.07361        336.53086        284.43349
359.22045        346.83887        247.33616
359.40240        346.68545        293.53140
360.42937        350.44869        312.54738
364.70159        356.56646        249.65496
366.65138        357.50957        295.12375
363.85690        366.64910        323.51284
358.54252        366.89069        334.49124
358.80198        369.31619        290.50402
359.79991        375.94768        342.13400
358.80326        372.91600        354.62662
362.62665        383.95667        317.54096
358.34092        389.40329        333.91578
359.24956        396.93564        319.29514
363.05937        398.89154        358.51511
359.34964        414.29321        324.84656
359.13111        414.62494        339.10980
363.27503        198.78626        323.06788
362.62855        204.75566        299.11649
364.06348        214.65207        288.25172
363.15959        214.63399        294.56845
364.01829        218.92880        298.50211
362.93540        245.94592        329.04508
364.11231        249.79120        318.85749
362.87698        280.55352        269.60289
367.38624        343.68890        293.42292
366.90509        339.08739        284.66222
367.22775        346.58086        283.53745
368.77788        366.36838        294.59143
368.00003        366.47074        336.26971
367.11965        376.39417        292.97887
363.98645        373.95725        313.96283
366.31189        374.49404        350.03395
367.29130        379.52074        309.16945
367.36292        377.94156        334.29537
364.65113        389.01484        309.65299
364.61676        388.47062        324.33881
364.39310        394.29352        314.54175
366.63836        395.93307        326.86356
366.89191        396.33529        336.12521
366.98715        397.90561        304.49765
368.72913        396.65383        317.95421
366.17275        407.22252        327.49334
367.36678        407.31775        337.98262
374.51302        403.97998        317.81437
366.88650        415.28769        327.41320
368.96618        415.19018        336.75960
368.92679        353.19740        343.18769
369.13547        374.56479        310.51144
368.29751        376.06088        326.02018
368.78713        378.82018        316.78401
372.11012        388.87699        327.25191
373.21626        174.45357        298.85898
374.38437        245.11265        304.98990
374.32673        257.30788        319.45415
372.68523        309.37839        234.50438
373.21659        308.86890        328.88819
373.05082        322.72380        214.42633
373.17820        359.55109        308.55182
374.21184        367.07404        314.86479
374.41168        368.97965        290.61556
374.83019        369.26844        327.98934
374.51205        368.95993        339.05591
374.54229        376.10227        314.22895
371.18150        384.38276        307.73433
377.07143        386.57803        316.80747
376.64378        392.43284        339.19356
374.44086        394.72501        304.84460
374.39649        409.16238        342.73208
378.25611        199.69711        318.27348
379.45923        224.77202        308.99280
379.37100        240.39251        318.72184
380.99709        245.07466        308.81733
378.74292        250.34845        308.77079
378.87622        250.29002        314.84680
378.29014        258.66819        322.96864
378.93573        328.88797        264.54016
379.06830        370.64956        325.09121
382.76259        369.93790        340.11361
379.38466        377.64329        318.89108
378.61635        376.69992        331.44801
383.27635        378.61144        326.09952
378.61702        384.44360        327.22462
377.10455        389.12616        309.52176
378.45356        409.59894        338.67731
383.23548        208.79181        298.84565
383.99884        234.45253        304.98736
387.93921        250.82960        315.71862
384.68893        258.84131        298.90708
382.93205        318.80832        214.46915
384.86700        374.59555        339.10416
386.24609        385.14913        334.48167
384.09156        388.95362        344.38083
