225.44382        375.35394        280.12759
225.36288        374.93503        299.95371
225.59048        375.09827        310.15915
225.02107        384.09735        194.22653
225.08257        390.81586        289.61917
224.60814        394.98718        208.93341
224.17734        395.84564        218.45512
227.25355        395.76613        274.81743
225.18684        395.35690        285.57806
225.53700        395.67886        296.22302
224.35889        400.09201        259.69388
225.41415        405.29617        288.87567
224.96251        408.30627        298.82534
223.98413        412.90924        304.91601
226.94103        414.40410        261.21678
225.53616        436.18219        294.61237
225.32501        445.33990        275.38812
225.16872        454.92725        270.39230
225.17256        459.80191        265.17978
225.08822        459.14927        280.56738
221.61616        465.52674        280.29615
225.74426        466.49568        287.84016
225.27881        470.00543        280.26675
224.46141        480.00858        245.39978
224.25176        490.48413        246.36047
228.58140        71.35864        244.05078
229.43330        84.89307        250.22186
231.44557        103.85077        318.51697
228.82377        99.56975        325.44126
229.35419        105.99498        255.45996
232.63639        119.85940        310.73595
229.26047        125.30817        305.31940
230.18208        123.85060        334.33286
229.39421        131.86644        306.62977
229.73405        135.87987        236.45822
230.52557        145.28322        239.85625
230.18121        145.25145        265.19290
229.77610        150.41333        275.14758
229.53355        195.04195        310.56802
229.74902        244.17724        255.58317
232.75674        239.73402        260.71818
228.59531        245.24268        265.03043
232.35470        250.19723        255.40077
230.46489        250.15248        265.16031
228.61578        254.21220        248.46097
236.71048        258.03705        264.23229
230.40755        264.67011        270.11377
232.13528        264.85585        280.84353
232.56745        274.79369        265.10209
232.01320        275.18428        307.89791
232.66525        280.33218        302.42726
233.22353        282.42436        255.55321
230.53430        284.39615        264.99585
231.89374        288.34987        299.31519
232.71674        291.77868        260.78461
233.53736        288.32000        306.88429
233.75583        299.73910        285.93207
230.78410        304.91071        296.17786
230.80218        310.29269        248.27889
230.42833        310.62268        257.91049
233.67122        312.65809        287.80075
229.36557        315.53946        235.06131
230.23073        315.99899        250.29193
232.62683        323.97506        287.07045
238.13063        315.28072        312.83215
230.28819        327.47463        232.39708
231.29464        327.90771        239.60779
230.40988        327.38808        305.38623
232.71422        334.84894        252.13723
233.11953        334.20331        280.02389
232.65047        338.76287        274.92343
231.43051        344.21067        251.43047
232.64450        353.70920        299.87119
234.45670        355.23572        319.33143
230.68613        355.40909        245.16989
237.42224        356.91814        282.31778
230.23422        360.18399        269.66821
232.70853        365.49364        243.21447
229.41646        369.70950        234.41347
229.36499        369.40265        260.46054
230.32796        371.69424        295.21619
230.59180        367.83912        299.98380
230.44675        370.21477        306.82059
232.54992        375.30840        280.53247
230.83007        381.39339        272.19668
229.98715        382.20095        295.06982
231.85348        379.65186        306.06385
229.68271        394.50525        186.01195
230.35112        395.73416        289.84659
230.35088        398.25532        306.65347
229.42230        399.73101        202.93725
229.21683        399.92560        281.29457
231.15566        400.08648        295.06890
230.02968        403.17812        265.87334
230.02648        408.45816        273.34101
233.20279        402.57527        300.89651
230.87505        407.09149        310.36787
231.36727        436.74839        291.35386
226.63813        447.25646        280.16913
230.69534        459.88568        285.52658
229.35039        465.02264        234.36940
230.32503        465.41257        264.98102
229.54065        470.75055        234.75455
233.89455        469.85463        260.00889
231.59188        467.73390        288.53111
230.07544        480.62097        234.74089
228.51081        479.84186        264.49194
230.33250        488.96694        260.39358
233.91817        50.22505        245.93547
232.16198        58.41242        245.34193
234.57649        63.36724        254.16376
235.07008        90.34060        340.50891
235.08035        95.36664        334.14871
234.90508        100.65265        260.16736
238.84573        98.50630        335.01271
232.84746        114.33470        315.63996
235.89519        120.81584        321.87216
231.25536        129.37637        260.03306
237.03268        130.59359        314.31481
234.00361        130.01072        330.06857
231.42526        136.92384        271.89762
237.22177        143.00787        236.44475
234.43710        140.58128        248.39376
234.81117        150.09378        255.65141
237.40373        230.53305        264.73197
235.63759        234.65286        255.31265
235.99324        244.92003        263.70310
235.29893        246.79638        288.64330
236.94139        252.53328        244.70602
238.77932        251.39336        299.32789
235.04399        255.30443        255.23418
233.61165        254.28151        285.64486
235.78292        261.65712        273.41263
234.83414        267.02905        297.01586
235.41441        273.85448        285.33284
237.89237        276.33046        294.85777
233.69600        278.40946        280.19217
234.57117        282.83650        260.52182
237.54210        285.37421        295.22958
239.96207        292.79373        290.60336
235.00949        297.11139        255.36400
235.80905        295.11295        271.98678
239.00023        294.94284        302.85297
233.56185        299.95920        270.00873
236.74099        300.11310        281.42943
234.65437        299.76108        295.95001
235.91249        305.27350        279.36981
235.06876        312.17288        275.72703
241.04570        305.57227        298.88525
234.93759        315.42734        260.52905
234.75471        319.91372        243.28600
232.88765        319.86566        271.08042
234.61636        320.88580        300.43350
234.73636        320.15482        321.14941
234.51944        325.31149        254.19318
233.68701        326.06079        260.65161
234.87167        324.77951        309.22205
236.10587        334.39618        263.33416
237.24893        335.09262        271.50666
238.17879        335.30537        318.37759
234.72197        348.93912        239.86671
234.62430        349.26577        326.36372
234.04832        358.72290        233.33268
235.64421        354.77985        269.99353
236.43593        354.16483        274.96764
234.94366        355.40952        305.29462
234.49364        354.99661        330.26358
235.12550        359.91107        255.14748
234.96075        359.18168        294.83295
234.87200        360.07642        328.24055
234.79250        365.13123        293.75107
234.76114        364.57392        310.53119
235.09573        363.86991        319.59278
234.87029        373.22752        234.94815
236.87104        373.94019        248.59475
236.94696        374.27945        290.78588
234.92055        373.21424        314.45416
238.30305        380.03863        255.50840
238.73911        379.93717        299.06913
234.41940        384.44031        184.91316
235.11005        391.27747        197.63675
234.50459        399.52847        260.81302
234.59085        398.27159        275.37665
234.86679        399.92172        315.86569
234.46602        410.49939        300.28516
234.54605        408.21122        305.12994
235.85734        412.37865        267.45783
234.51978        418.41580        310.14270
233.60410        447.77967        287.47773
234.67377        448.53592        266.11554
234.61873        450.70135        324.30719
234.99646        457.06478        280.24155
234.64641        453.77509        295.36618
235.79890        455.19092        334.70285
234.39209        475.68701        270.40851
234.93948        478.66956        279.10636
233.62183        485.46158        255.13670
237.15779        487.95685        269.99601
235.88397        492.54401        245.30118
234.44573        495.00177        255.67180
239.97553        54.86445        259.86911
239.94310        95.54166        325.30545
240.30434        99.88589        354.15924
244.57888        101.54203        246.20270
239.90690        101.14102        255.13917
239.99808        114.17435        252.70871
240.14621        118.63657        303.66960
239.81314        125.15402        313.79322
238.69701        124.49168        325.26477
237.94428        133.82559        263.66230
239.59285        135.23795        270.25919
239.89343        135.83194        335.22324
240.98388        140.13574        249.88757
239.92591        145.38361        270.89739
240.17470        150.83417        260.43234
240.53576        150.99174        267.90397
243.18374        159.91827        334.33183
240.01718        169.03484        293.74435
244.67177        198.25942        275.96967
244.41631        203.16761        284.33417
238.88120        220.43445        255.13940
238.78275        230.69282        249.94435
238.71384        239.69563        244.98747
238.87413        239.89429        250.26012
240.13260        242.68334        290.06639
240.26154        244.99281        250.28650
239.77014        246.32615        260.64957
239.61772        245.27951        270.39758
240.13002        245.30565        307.49574
242.94080        250.98219        265.09623
242.97997        251.88140        280.64242
239.53575        249.96577        288.65540
239.89616        263.58513        234.81986
242.52099        261.33740        245.22681
245.04427        263.24535        254.69707
240.21559        261.74750        289.56511
239.21532        268.24529        240.31576
240.14302        267.80539        266.55183
240.34273        264.97018        275.39389
239.98811        268.81133        296.73202
240.07887        271.14724        306.47506
247.71742        271.63174        235.16285
244.15419        278.73741        239.60083
244.08841        273.33811        248.20715
243.25395        279.22540        225.26654
243.26198        282.65389        247.20535
239.85902        280.76816        304.07199
243.62359        292.73563        234.79697
242.79269        285.37034        276.58820
240.05036        291.83670        262.97126
241.99772        289.33104        300.36626
239.72601        287.93289        309.73236
239.56213        300.03049        255.58553
239.99563        306.91571        254.50712
244.53133        308.30018        244.36757
242.25088        318.35202        252.83199
240.03086        317.59026        304.24165
239.54450        319.96249        263.68537
239.96428        319.73080        284.28348
239.81905        319.89612        324.05683
240.03997        324.92690        233.60081
242.93875        327.90223        260.26460
243.44044        325.12326        265.51233
239.84458        326.40327        293.52666
243.70272        327.08482        302.44977
240.89941        324.99295        315.67490
242.54912        325.12230        325.19458
240.28413        329.12866        249.94295
242.63654        328.13448        276.33810
239.91106        329.16737        310.55258
239.88089        329.95831        324.17069
241.14332        334.48798        230.28632
240.00653        338.52611        258.87572
239.75282        336.52316        298.16233
236.99138        335.46363        305.39976
241.80399        340.89639        279.19483
241.20504        342.67265        289.64564
239.75300        348.50940        245.13492
238.83341        347.99550        317.19786
238.95528        348.52337        262.60417
240.35486        349.75809        310.76770
240.05458        356.24055        293.62075
242.42800        360.03552        246.00459
240.21750        359.05560        255.26146
242.38618        362.69907        308.91153
240.06941        360.27167        328.10474
242.54961        366.33073        237.71134
241.51280        366.88835        282.84115
239.99283        365.49670        292.96640
243.55246        369.72504        249.24262
243.53436        375.56562        265.28923
240.15234        378.98218        246.20416
237.06900        382.53442        250.52338
240.30016        395.68982        310.55954
241.24026        401.91604        295.20974
239.88356        400.84338        300.09653
242.95882        399.90737        306.32282
239.86095        408.16051        255.32244
241.89570        415.43194        269.80037
243.97398        412.17809        303.93414
239.92373        429.61231        292.87912
239.69658        439.95357        296.73604
240.77081        445.32217        320.18573
238.96907        460.15671        280.17126
240.14110        464.33347        285.81137
238.97877        468.78477        236.60697
239.91063        475.79742        271.31674
239.93940        478.11821        278.42934
238.92000        478.73368        253.90652
245.23665        59.17750        249.01738
245.28815        95.09241        344.58121
244.76131        99.37161        241.05098
244.86376        100.23389        334.32920
245.92632        102.87692        320.17117
245.18258        106.05679        325.63830
243.94015        135.11797        259.65804
244.67464        134.10048        335.13840
247.10276        142.07385        240.20750
245.32173        142.49007        262.87159
244.89809        148.89491        251.85732
245.46687        149.48113        335.32077
245.45646        157.19613        273.71649
246.00801        154.77242        280.44690
245.14045        164.98376        276.60406
245.21329        170.15923        267.09765
248.93399        183.74797        345.18069
246.03361        201.29172        247.84135
244.95996        200.51988        296.25961
246.22736        216.40490        275.00418
244.94893        217.51501        283.51790
249.09346        242.05600        254.90838
257.84582        241.53067        269.38073
243.17000        235.00912        295.31409
244.89307        234.56892        300.29715
247.74638        246.51705        302.37720
245.19991        245.37700        295.03037
244.27857        252.23462        249.53841
244.89170        250.50648        257.43852
244.75311        250.44099        289.79321
244.86346        251.93301        309.77809
245.28145        259.84480        301.41492
244.75562        262.61729        284.36727
247.70805        262.75618        294.96782
244.72929        266.04855        231.40799
246.15545        269.83991        257.68150
244.96608        269.92935        285.28781
245.20311        269.93060        305.56482
245.92996        275.10738        277.60058
247.79361        273.35663        295.74093
245.02730        283.50699        288.40922
247.70065        279.76768        310.73672
245.42793        285.23187        260.55856
245.05518        285.14941        295.17230
249.84714        291.35152        264.15569
246.22259        300.19296        249.16625
245.00974        312.18351        305.55676
246.38058        314.39136        315.55814
244.92693        319.84113        294.67920
246.06190        319.65994        310.39416
248.62143        326.26852        234.76328
246.30817        330.11835        230.62920
250.67946        329.37788        239.72564
245.45709        329.93839        285.43878
248.18268        329.62286        315.65129
244.05715        334.20540        270.12842
244.97930        336.36418        283.04211
244.82208        335.37659        289.81168
246.85840        340.17154        224.33054
250.56082        340.04111        250.88495
247.08633        341.50580        269.95653
248.69709        340.79324        292.89696
244.12606        351.08502        304.99170
246.41981        358.55608        315.35774
245.00192        362.43063        294.49739
250.59970        356.76384        324.04930
246.83876        365.44026        269.49554
243.14128        371.85171        305.12307
245.15062        375.14258        275.52664
246.21414        373.74759        295.12137
245.04094        372.99192        300.20679
245.22005        378.86087        279.48969
247.45454        386.64778        257.32626
247.08505        386.41352        315.37669
248.60535        389.74795        310.30173
245.37700        405.31274        264.82849
243.99059        405.33167        300.51404
244.34343        405.28670        310.43566
246.00762        408.22886        316.24420
245.39590        415.66498        265.23471
245.17293        418.55115        259.60260
246.25981        425.21417        304.24512
245.29132        434.87167        295.16315
244.91530        434.96039        300.37592
244.97495        434.86227        315.78668
247.94444        437.95983        321.09631
245.00995        438.43250        304.19577
245.32573        449.59369        273.94840
244.88447        449.82846        298.08020
243.11823        449.58975        334.61429
245.00734        455.24750        325.38071
241.51346        459.14341        253.10508
244.12921        460.21582        260.31009
245.40395        460.46844        274.18528
245.21994        475.45554        269.84387
244.95032        490.24484        254.99643
245.95140        489.87772        265.72989
243.82463        493.36259        250.24788
251.43895        77.50613        240.91184
250.28649        74.45769        249.35903
249.88132        91.28210        254.50186
255.92798        94.23329        320.85242
248.65172        125.38228        344.98197
248.56538        132.78692        253.47735
250.35571        141.37560        335.23650
249.16238        149.22569        241.07675
251.55808        150.39595        265.53449
250.03041        150.59946        338.69813
251.54551        156.74824        328.51493
253.13912        172.59627        260.73907
250.15369        175.33800        268.78073
251.44670        173.41289        340.81417
250.46884        181.78477        232.32779
249.06504        190.23885        238.97814
248.29788        194.75008        242.94867
252.14359        200.26204        269.13505
250.50293        204.30310        274.96933
249.92049        205.38275        280.20386
251.95141        211.61791        250.37735
250.49004        208.93086        264.68023
250.17345        209.62401        285.42239
249.94870        209.91585        299.13245
251.41041        219.15393        285.10174
252.09500        222.96660        242.09309
250.02859        225.19314        262.33202
251.51978        236.75150        291.19189
252.85046        240.00221        304.26517
251.32434        245.72443        260.47554
250.21338        245.41408        273.21708
248.44343        245.01111        285.74684
253.78944        255.61888        229.78758
250.27121        255.23828        249.17900
247.39271        255.65975        287.66905
251.34520        255.25096        294.79520
248.28011        259.63361        260.79516
247.31456        260.94773        273.55511
249.93242        259.53708        289.81311
250.15494        264.71185        313.86789
250.47569        269.83313        248.30081
251.33865        267.47932        304.98817
249.20102        270.16629        313.56934
250.56654        276.25125        244.94917
250.27155        280.62344        271.04629
250.23579        278.44750        299.05194
250.08441        286.54006        223.96965
250.30942        286.47143        245.10520
250.36942        285.40854        250.14551
249.64567        287.84372        254.39019
250.21071        286.63937        270.03549
250.23158        284.43396        285.44009
250.23022        283.79859        294.83609
250.19081        286.41177        304.35511
255.09974        289.26618        285.52734
253.76075        294.02155        296.78739
249.11931        303.18287        239.59859
248.41942        315.46566        296.01569
253.13649        317.70299        227.01919
248.44879        319.82928        315.38278
250.32944        327.09878        260.57996
250.03543        325.01926        310.34698
248.19129        325.46237        319.68839
250.57009        328.43495        255.56977
249.11957        329.99149        280.08203
250.45514        334.17841        230.87292
250.24881        332.49744        246.19128
250.05478        335.00107        260.84402
249.00362        332.50224        289.50082
250.13399        343.17499        231.21808
253.72141        338.86385        315.71558
254.10881        344.93222        254.79092
251.96685        346.29941        285.44986
249.63838        364.05585        248.55344
250.15843        363.66642        284.49750
250.33959        366.31023        311.83808
251.99660        369.69853        325.76477
250.86815        373.85326        240.37310
250.55869        374.82504        254.23607
250.10593        375.10287        274.13617
253.26910        373.64665        318.16229
249.99519        381.77625        301.02075
248.59273        383.15381        250.38066
250.09894        404.16992        261.61239
248.46180        404.32662        275.33367
250.10240        410.08466        301.21274
249.32057        413.24531        253.31431
249.61793        416.90345        274.39792
249.86438        415.46274        301.42489
254.02567        410.29980        308.58863
251.41024        416.86209        317.79562
253.05690        420.34707        286.76239
249.90952        440.04993        304.04138
250.16134        446.36484        328.10186
249.98918        450.11948        266.95427
252.69059        455.42925        283.98892
250.08287        453.77713        339.39340
250.01012        460.19467        276.37408
250.06160        459.88004        335.22922
250.11008        465.24536        269.61426
250.02951        464.27472        285.22296
249.20492        472.02430        267.57607
249.36043        474.64471        229.58360
250.36084        493.23346        254.49979
255.33197        65.35934        250.68352
255.18939        86.12473        328.37796
255.00688        89.96159        235.84064
257.32147        87.52222        245.78802
249.86920        99.46848        258.00045
255.38426        97.66655        289.52878
255.25087        105.13435        243.27015
254.36534        140.54793        340.92703
254.35948        151.57636        277.97516
254.40702        163.98274        263.68116
254.32332        164.02477        276.97180
256.66307        192.11897        252.10551
255.52153        190.27924        351.08691
258.50876        193.70705        279.25383
256.90706        194.17568        290.95948
255.51462        201.20722        241.39284
255.08361        202.31674        255.28828
255.39027        198.53763        265.14886
256.64774        202.57280        296.90507
255.12828        205.58016        271.82181
254.30048        205.44119        285.73758
255.23525        208.75103        234.79184
255.43681        210.07834        274.94693
256.43697        214.01121        235.71211
255.05969        215.24388        244.94153
252.88252        213.82988        262.13644
255.08263        214.67156        280.36182
255.27939        217.02497        285.50598
255.60321        220.13565        273.07129
258.03169        229.58572        261.13650
255.20193        225.10333        275.03192
258.74614        231.71692        276.07920
254.57807        234.91893        305.03220
258.16142        245.63613        281.37410
254.69630        246.49834        291.84700
256.51944        245.25277        299.64055
256.70912        249.94871        270.01056
257.06599        260.35163        246.91051
260.41916        249.71638        257.32999
255.95529        252.03274        311.62458
254.29114        260.97208        230.22308
255.44716        260.19254        305.47110
254.19475        260.57449        312.73832
258.39341        265.42938        234.68198
255.56964        264.75482        300.25601
257.23797        270.12876        301.15093
253.70991        270.22971        309.25266
256.28979        274.43764        230.87971
255.49138        278.29877        242.69765
255.03561        275.07974        310.17957
254.34783        280.36856        225.20406
254.51734        281.46698        276.94703
255.37450        279.96909        299.75519
255.36721        286.90350        250.31946
257.63239        283.98767        309.71814
256.80465        290.53479        237.54722
254.33499        299.03571        240.06575
255.91910        298.40729        245.07906
256.49406        306.86429        300.13998
255.50368        306.22857        305.44079
253.85753        319.29463        241.21883
254.43330        318.01642        306.82956
254.72770        325.93704        295.88015
255.52945        324.66428        221.28842
255.46027        326.02405        234.70666
252.76756        325.02563        250.27742
259.61451        333.04125        256.26821
255.25476        330.86852        266.04633
253.46233        329.29252        305.21426
257.04781        336.80671        220.56539
257.83502        335.41565        230.63493
255.73874        333.57432        244.70662
254.85085        339.09720        274.93925
256.48363        335.37991        285.66424
258.47879        339.94535        261.15042
255.11905        343.12545        236.01546
254.58076        348.04204        208.28665
255.65230        355.96755        301.02041
255.10570        360.63889        250.35872
258.49865        366.43413        245.48931
253.71165        364.56302        260.52555
253.62556        371.86023        260.51315
258.51498        368.70105        270.78608
259.71962        372.34023        286.39351
255.78256        368.52363        304.25218
255.11348        374.86993        234.56123
253.64520        374.86908        270.05182
254.14070        380.32196        239.85297
257.33615        383.63454        259.65972
255.24747        378.93405        323.96128
256.53253        382.68057        289.84836
258.05573        384.96527        315.13707
255.42627        390.52243        299.03028
255.30330        410.34286        264.95764
253.41138        409.13129        284.38974
255.43103        410.16684        292.89300
255.33797        415.43048        274.11088
254.47079        419.88542        302.15205
255.61118        435.26358        275.50339
253.59899        449.63513        294.96478
255.21983        449.93079        310.50980
256.42640        490.83016        262.85446
262.80797        65.39893        255.29531
260.15909        75.96380        245.29037
260.43021        80.09973        234.35382
260.55450        80.31275        319.04605
259.76147        82.41623        229.40702
258.58997        86.26765        310.19568
258.67899        95.53174        251.91258
260.03052        92.58785        289.12293
259.04578        98.92092        285.50860
259.70239        100.81921        345.08283
258.66739        105.01737        350.29779
258.61277        145.30953        245.28522
258.53049        150.24082        254.71241
260.11739        154.33469        288.81860
260.47940        155.62207        234.58048
262.45787        160.84682        339.89180
260.52060        164.84754        258.69318
257.96407        167.16227        270.22533
260.30523        167.10742        292.45713
260.48407        169.41330        254.17688
259.79260        170.69323        342.94254
260.67125        175.00663        306.93315
260.48806        185.75996        307.44398
259.82162        195.18178        246.88497
260.34064        201.57344        255.14610
260.22189        200.42641        260.55484
259.55854        201.57318        289.72892
261.83868        205.19812        234.38414
261.65814        206.62289        247.73337
260.19290        208.62453        230.26942
262.95173        209.36842        239.95082
259.63315        210.05473        257.79740
263.98031        208.99558        277.32690
260.62970        212.04483        292.10307
260.82999        211.01799        301.11285
264.03207        209.91762        319.95286
260.46521        214.89050        255.62370
262.27820        223.92151        238.83622
260.56900        221.48389        251.60252
260.51520        218.96583        272.54019
264.24308        220.18027        309.90402
260.28575        225.23046        294.30864
260.50580        233.75497        287.15971
261.76835        238.73226        296.53053
260.37399        239.89537        258.46314
262.17080        244.25445        232.66288
264.93970        252.51080        229.71078
261.97810        250.00710        241.71266
262.47380        250.75395        294.78468
260.29495        250.16464        300.00064
260.59686        255.41907        221.12306
259.39993        255.68439        235.01129
259.49008        260.33643        255.55785
262.70514        261.41416        308.02234
260.45651        262.66400        319.39333
260.22394        265.10529        296.73476
265.26431        269.82182        229.49380
260.46976        269.71216        239.72890
262.69040        280.62671        300.01251
260.73495        281.32314        305.35949
262.05504        283.64830        289.66434
260.77795        288.78156        249.92120
262.24915        290.14935        259.82880
260.53549        290.64499        319.68668
260.84830        295.92215        255.28819
258.51514        297.38397        250.23930
265.50345        298.73375        297.63325
264.79905        301.71554        317.45539
261.53937        312.22360        242.79176
258.49485        310.44446        235.63870
262.28269        319.80258        234.33121
260.69691        325.73900        224.57648
260.71576        325.08542        234.79390
260.38023        331.77822        238.25093
260.55095        332.92573        275.84755
267.17324        325.57978        299.61055
257.73510        329.36432        314.78469
262.93378        334.32898        265.08379
262.89407        335.47987        281.11326
259.70029        339.67423        84.74152
260.30765        340.33810        235.11244
260.16617        344.31784        212.73389
262.98733        344.35277        256.53297
262.20313        344.67494        301.26406
260.15900        348.80078        290.69430
259.51730        356.31378        239.87936
259.62757        365.78738        300.12003
260.82774        366.49938        310.31023
264.24437        370.25089        320.17440
263.37395        374.78491        259.81803
261.00690        373.74298        295.07669
260.48309        374.83240        309.43576
259.75935        378.33797        250.41610
260.43802        382.11385        278.22818
264.57471        385.22156        299.41834
259.52792        390.35461        255.37256
259.71732        389.37622        269.70486
266.20314        395.77465        279.12988
258.71696        390.79001        305.46140
264.30103        396.11068        264.28661
260.61081        394.37079        290.21277
260.24866        393.78080        314.46143
262.64374        400.99701        285.64278
260.67199        404.17338        264.65491
261.77777        414.30333        274.11072
260.72082        418.39472        310.08881
261.87235        424.10975        270.16716
260.50452        424.42117        275.54074
259.76456        424.49158        284.28708
261.67290        423.09168        299.93442
258.99604        439.09992        318.70518
260.58252        445.50320        270.01248
260.29630        444.67124        299.74280
260.47690        449.39078        274.89859
259.64829        451.77044        318.71317
259.64435        455.00742        264.91388
258.67068        455.06333        280.23355
260.93057        454.03104        299.84723
259.73309        460.01129        278.22358
260.60760        490.32629        244.14586
265.26437        56.09759        250.09325
264.99741        64.63315        264.54892
264.01948        76.07310        249.30963
264.86326        78.92894        236.64361
265.06546        84.23242        329.85553
267.44897        99.69951        238.83121
267.98851        99.91045        294.98575
266.07096        97.16509        313.00049
262.87721        106.63154        290.70471
264.46857        104.89887        299.93137
265.67430        106.29751        220.10212
265.07443        113.23319        285.28540
265.97720        145.53941        280.21106
263.93805        150.37093        338.43421
265.00870        155.76045        280.17743
265.31672        155.19387        300.93664
263.75574        159.67632        255.34509
266.83079        171.53194        234.76097
264.56030        169.96530        249.88736
268.23408        177.38442        263.48893
265.04759        176.43930        327.52139
264.65656        173.70282        339.31079
268.66310        185.49272        315.51919
264.77704        189.08974        300.39020
263.92533        191.18306        339.61142
264.70813        199.17697        235.15067
266.71654        198.38439        239.80441
263.70542        200.29226        286.69371
265.02490        201.29272        315.02204
265.25555        203.79857        349.86108
264.91388        210.18439        255.40903
267.88178        208.47728        304.89512
267.41287        214.92805        244.94015
268.49419        215.09342        262.94319
265.08472        215.24437        316.00079
266.73437        220.12698        283.60566
263.80286        225.12167        280.19183
266.78184        225.29631        318.63297
266.02176        230.43985        255.02538
267.06537        241.87277        224.90434
265.77810        240.02069        240.00766
269.11165        244.02181        247.53927
268.93526        248.83188        286.31203
265.02551        254.33277        244.95340
264.71750        253.46236        289.76755
264.77573        255.25331        310.38272
264.74414        254.26642        318.68155
266.86468        259.35715        235.08531
266.10403        260.36969        239.99928
265.07159        269.82040        305.08353
265.06671        271.69797        310.49403
265.73407        275.49225        305.12296
266.09289        279.11359        243.96457
268.40576        286.32058        233.70409
264.73581        284.49335        296.11505
266.12543        285.45737        325.01401
263.65732        290.04559        245.30626
265.05093        290.78863        300.34396
267.52304        289.58916        315.47119
264.88571        294.81378        310.36249
265.09142        312.67776        312.75738
266.64779        315.02587        305.89374
264.68723        319.77600        224.96901
263.90400        324.99670        245.31845
265.13315        330.04141        235.06683
264.79593        332.20166        246.84626
264.98797        331.19962        310.52065
266.87508        330.52874        326.05350
265.20367        335.30778        227.78708
263.69269        337.50417        289.63346
270.50990        334.60340        305.86361
264.48739        337.93737        318.11342
264.72479        340.57721        215.25058
265.01334        340.31622        230.55446
265.88797        339.44208        271.38650
263.47681        342.60333        324.52950
267.56177        344.60500        225.63679
265.85058        345.84720        289.89484
265.21342        345.26637        294.92747
265.95523        349.96979        260.97858
268.27714        346.54771        307.24668
267.96695        349.37592        319.26689
265.46825        367.89279        230.79002
265.04239        365.44049        240.13275
266.70504        365.74222        255.09096
264.81485        364.60379        301.25342
267.08827        374.81720        300.03493
264.93779        386.93406        245.44414
264.56540        390.62375        316.01871
262.20756        394.39757        253.51049
264.47623        411.29403        280.04761
264.00247        410.46228        304.99042
265.05701        417.83022        285.41662
265.55474        426.65990        279.17020
267.00943        442.19182        310.38454
265.84837        445.39453        358.47549
265.05658        449.55362        376.08310
265.15530        480.98895        244.79022
263.78378        494.35394        252.54881
270.36533        55.27012        255.33992
269.67020        60.20148        239.98892
270.17783        65.17391        252.80105
269.93448        70.37476        245.20464
271.08349        100.49251        230.45767
270.08261        114.42642        260.57754
270.46673        150.11959        278.49419
269.16062        150.70886        285.76855
275.82677        151.72393        295.72975
270.08542        154.62332        304.42411
271.02398        160.14517        255.13785
271.84869        159.92594        265.22804
270.91180        159.87054        275.02243
270.95660        159.88216        285.57239
269.48888        162.98332        298.90624
269.83796        165.08936        258.59185
270.31653        171.30203        229.44261
269.58786        168.70551        246.78174
268.59106        169.63715        263.15820
275.09430        170.00166        298.07696
269.92020        170.23544        303.15360
270.42516        169.88666        320.30147
270.14296        175.26064        237.02665
270.98932        176.89146        308.76870
268.95304        175.68860        335.02554
269.50607        183.13747        232.07956
270.32016        180.64128        300.00833
270.41391        185.13541        239.88069
269.62564        197.00205        245.10017
268.97510        199.10398        250.18642
270.01608        200.44145        313.72618
271.76253        206.21752        234.81557
273.00881        204.48377        290.51712
270.11554        210.18367        239.83185
276.34033        210.93780        257.77907
269.92313        209.94840        263.98503
271.16284        210.14514        287.78757
270.11801        216.09291        273.10523
269.75919        214.88142        285.86771
271.18258        213.00574        296.91272
270.09813        215.14726        305.95803
269.75278        213.72380        323.21894
268.83255        219.98842        260.54834
271.64746        221.54010        297.64980
276.58920        217.60154        306.66921
270.26266        220.33788        316.02450
270.47789        223.81973        246.42240
267.94260        224.31676        257.87911
269.49497        230.48046        301.26028
279.13762        228.72029        298.86385
269.95432        250.04256        226.35609
269.64569        250.55862        239.58855
272.56245        249.31949        257.42727
275.41201        247.37630        298.96747
270.05957        249.93343        319.78427
270.94078        256.00602        295.89844
270.20822        253.43227        308.40531
270.34793        256.79052        245.35126
268.91699        257.62552        251.99289
270.50421        266.06322        318.02331
269.65397        267.96132        243.30519
273.48720        266.98879        305.51919
272.76474        278.54174        310.60899
271.79630        278.71166        317.84769
270.07090        295.40369        246.70616
272.67270        295.42415        235.39355
270.04953        295.23419        308.41880
269.55732        295.16652        321.67744
270.39957        305.21112        244.88454
274.13791        304.01850        299.43496
270.05976        310.30941        301.89562
272.53593        318.78538        240.14301
269.88202        324.97464        308.57486
268.82953        329.99533        225.27745
270.16959        331.21444        255.41705
269.80939        329.84348        320.02689
270.22235        336.56588        219.88106
273.24754        335.57347        271.39670
271.13082        333.48851        289.56714
271.49708        339.07804        329.72951
274.05831        339.46089        257.77899
272.49507        340.02657        278.48479
271.01465        339.36456        294.94754
270.38580        344.44782        233.98519
269.66711        345.91650        264.72009
271.25262        348.19605        270.37784
270.17208        350.81773        281.57244
273.64165        350.16523        309.57278
268.81256        365.81094        250.07433
270.23059        369.37509        238.96428
269.88126        375.19482        228.77023
269.54303        375.38461        307.30568
269.55554        379.78317        241.76796
270.37473        380.50143        255.22763
272.11839        379.96853        289.82901
276.51514        380.34421        299.49654
268.95274        381.91616        324.13055
268.07868        385.17010        250.28751
270.99725        385.36566        276.25095
270.20894        389.97043        257.04430
271.59100        391.52347        268.23958
269.41216        389.17416        310.73002
271.98397        404.92920        287.25167
268.85086        410.42380        290.91641
268.37182        415.29775        289.45035
270.31262        422.93850        278.22155
270.25238        488.24909        260.42953
277.17679        57.36163        250.59614
275.66650        67.46640        246.61385
274.26053        99.77428        216.14703
274.11514        100.57373        350.79004
276.02255        104.72924        263.86881
275.89099        104.84958        300.15591
278.41516        145.46983        287.25184
276.17488        160.93922        240.22189
278.80754        158.87527        268.23971
274.99731        159.91362        289.86301
276.33081        159.84129        300.89773
277.15063        165.20311        234.95218
274.08869        165.13104        244.89310
277.30681        164.17546        276.47337
275.06934        167.03413        324.92810
274.07563        175.33275        255.20225
275.13348        175.34198        260.28732
274.79367        174.30246        294.92694
272.92947        178.36937        317.70296
284.02461        182.92111        239.66936
274.17136        179.38214        325.03027
275.65768        188.53292        227.94616
273.64368        187.32866        244.36933
273.99478        185.31134        310.22223
275.23907        190.13080        334.22404
277.28683        193.93702        233.71963
276.06283        194.28241        355.18610
276.54114        201.65660        274.23420
275.59282        199.41879        295.55678
276.75655        200.23370        309.57288
278.92665        204.23345        319.79230
278.53957        210.36896        330.14099
276.98084        210.13603        278.50878
275.02798        215.28108        235.04861
275.38593        214.87363        245.19678
277.15183        214.82573        271.39681
275.27582        215.31586        315.27567
275.15395        222.11279        250.24841
274.88547        227.11064        308.96219
275.73443        224.87188        315.74256
278.12289        234.22300        240.92249
274.58122        241.53578        233.40576
279.67060        245.13295        244.85994
276.04921        245.69182        310.06977
275.48050        250.37732        319.75571
277.72614        254.97444        235.39337
274.17496        255.47213        241.06767
275.02527        256.40789        250.33357
276.46322        254.33393        255.52292
275.17334        257.98271        315.15074
274.69917        263.97737        228.14245
274.93581        258.76059        244.78561
276.36479        260.17455        326.65904
273.36665        264.88971        239.85012
274.23999        269.66364        224.21781
277.63449        271.85761        310.60890
275.19922        275.19949        235.08241
275.19470        275.19473        245.48143
276.15909        280.73547        224.21771
275.89314        287.62721        225.20421
276.34933        285.27737        305.41074
279.38021        284.99508        318.86727
276.21380        289.68826        230.37587
275.46262        291.63808        244.78590
276.22425        291.66167        313.83172
275.39855        290.99727        326.05361
276.22372        294.92646        241.06816
275.37375        293.99085        250.33322
277.16727        299.97943        259.40752
275.85393        302.94987        309.39281
274.91827        300.02188        319.75592
277.07592        307.99436        233.35726
281.01864        316.24822        299.06324
275.51335        323.28844        308.96187
275.16150        325.15417        315.37302
279.36924        326.94435        247.26504
278.10292        329.43191        296.85061
277.77843        330.19031        308.88282
275.37100        335.11774        235.04881
275.01324        335.52548        245.19650
275.12308        335.08267        315.27515
278.63663        344.18163        234.81549
277.07692        345.86590        290.89514
273.97861        344.55408        319.89706
275.22964        348.93097        275.08984
275.09851        348.88127        294.69831
274.74056        361.86544        227.94628
275.15524        360.26352        334.22413
278.51027        364.49107        242.31297
277.34366        364.74860        310.55077
277.46942        372.02960        317.70284
276.22784        371.01684        325.02985
275.54687        372.82398        238.17586
277.19842        374.24080        250.72067
277.75907        374.86453        256.84888
275.60507        376.09610        294.92624
277.56741        384.53489        245.38271
275.32931        383.36433        324.92767
274.22543        389.45970        240.23552
275.40158        390.48550        289.86279
274.06702        390.55710        300.89782
277.99554        391.85912        253.04464
275.34006        398.86362        294.97522
279.94524        435.91091        259.86706
274.97580        439.19080        360.47958
275.41668        443.82176        260.33369
276.28100        449.82233        350.78988
274.15160        454.76337        328.34883
274.97983        459.03327        259.65192
275.07776        480.75491        246.34875
273.22172        493.03631        250.59606
275.25687        494.19656        257.83257
279.36813        62.73820        261.26876
279.39493        85.07963        223.30527
278.67939        86.22055        253.83279
279.97684        95.48545        260.24976
284.10150        100.75386        317.82726
280.31805        105.84672        261.50296
276.14295        112.44041        351.76872
279.11176        129.69414        278.33396
282.02658        135.10071        289.45032
280.44631        152.38727        278.35138
280.18971        160.42848        257.04398
280.39459        167.56362        255.44361
280.44842        164.75125        288.83759
281.41971        168.15323        323.85741
280.51794        175.20438        228.77020
280.85172        174.82302        306.67639
280.28802        184.84508        259.67383
278.36280        187.03945        345.64078
278.39878        195.16311        341.49328
282.53757        200.38076        262.36546
281.87112        202.53487        284.27691
281.29768        206.33925        234.26650
280.50568        204.25115        256.51675
279.38394        211.03412        294.94736
280.17673        213.83330        219.88103
278.91741        217.50685        289.79225
281.56930        220.40366        225.27753
280.23004        219.18459        255.41661
280.33994        240.08979        301.89579
279.27258        245.23288        322.99936
280.28082        254.85923        246.62829
280.74197        250.12022        315.40912
284.20507        253.26245        294.41864
279.77954        255.76036        306.98078
281.61887        257.54013        319.48271
283.31137        264.83143        233.98153
278.50734        263.88861        310.52094
278.42647        271.92809        315.86194
285.34056        281.23702        229.29604
280.18362        294.96759        244.99745
282.25823        296.99954        282.35891
