243.83577        454.99624        277.93081
240.38769        477.30115        277.96062
239.63379        479.88449        249.08641
239.93021        485.12421        259.52622
245.15454        80.00581        254.48233
245.25349        85.00636        245.25264
245.18353        85.52648        349.86884
242.33187        98.04638        328.47521
245.03117        100.60704        246.09753
244.67155        96.75935        262.23912
244.75443        105.25060        320.22092
245.30275        104.55459        280.28122
246.27533        145.18170        263.95200
244.97588        151.57490        254.54179
247.15101        152.61375        275.28806
245.02358        167.15169        266.00381
245.19067        164.04262        275.41647
247.06342        198.54387        246.32724
251.45513        194.00727        277.71189
245.29801        202.51708        296.49364
247.04276        215.99773        274.74357
245.15881        217.14998        283.59240
250.00438        215.10311        288.41069
245.34477        237.72380        259.59555
249.21197        234.50718        267.41706
249.63871        240.12504        255.45581
245.28972        244.86600        270.23383
251.25933        243.21099        288.28351
245.08060        245.30063        295.01865
244.81946        250.34364        255.34547
244.99266        251.28454        260.27859
247.76596        254.77979        249.05881
245.06226        255.50438        275.14725
246.38765        261.19518        273.73893
244.70891        260.70477        283.69883
245.09709        270.73619        256.68732
247.29122        272.06094        295.03179
245.20358        269.84753        305.66516
245.82486        275.15513        277.62005
245.09210        277.26571        299.95792
245.22189        280.29229        238.89579
245.11546        281.52514        309.15934
249.71319        286.40626        224.85249
245.10843        284.31476        234.57010
246.13037        284.39700        262.19093
245.01102        285.09299        295.24139
248.72537        291.55305        264.86436
246.98081        295.00339        251.31859
246.11719        300.13568        249.21141
244.29825        315.19700        317.73464
246.28381        319.74661        310.46823
248.63346        326.56703        234.79730
247.84840        327.70871        239.84444
244.97812        325.44629        265.08832
244.97088        327.06889        302.60346
248.75848        330.82758        245.60085
245.32870        329.84784        285.53732
248.55647        330.00389        315.70679
243.99654        334.19609        270.19278
244.88326        335.25629        280.64145
244.82892        335.19214        289.89005
246.65958        340.10774        224.32690
245.29544        338.71004        255.40215
245.38634        339.56779        270.83895
245.02185        338.60864        285.76535
245.26657        339.36826        294.89792
243.73477        351.35658        304.09348
244.72147        356.94891        259.73084
246.06287        358.83924        315.32115
244.94044        358.20050        284.47708
250.47592        356.87504        323.67352
248.15088        362.24436        235.15077
244.85124        365.88678        283.54477
247.63143        363.66551        294.04996
244.73193        363.43189        305.49356
245.13210        369.46860        309.39966
244.96465        375.07602        275.26642
246.13974        373.80243        295.06714
244.90446        373.09174        300.14731
244.92473        375.09323        314.39359
244.05696        377.38218        280.15207
243.91990        381.63044        292.88126
247.24399        385.66244        314.51505
248.22166        390.97810        309.25435
247.75458        404.26409        275.15310
244.10057        404.71338        304.98776
243.92987        410.23145        304.97662
245.49327        415.25989        300.18790
245.01712        430.22766        304.97922
246.17047        434.80020        296.06024
245.40242        440.15475        319.85507
244.74461        445.56696        266.15155
244.77995        445.72821        272.39659
245.11592        449.97357        275.18484
244.16281        449.80066        296.11676
244.95296        452.28278        317.61934
245.15166        449.61563        333.57023
245.21495        489.79721        255.09848
251.37790        57.55578        261.41995
250.13785        78.92340        240.00113
252.38850        86.29818        315.29248
248.39766        90.19379        335.10608
252.18907        97.68004        325.22501
247.29574        104.85740        295.84063
251.86121        159.49171        281.99233
250.15840        169.99276        276.94195
250.91345        182.01959        232.80434
250.38591        204.44458        275.05640
249.23461        207.51822        280.50122
252.81511        209.71993        250.25811
251.40658        209.56992        264.65256
254.16196        206.34880        287.30833
249.18195        209.68651        299.14505
251.27403        214.85146        250.11342
254.13245        220.74093        283.88972
253.47881        222.65838        242.13952
250.20295        225.22593        262.30256
251.48047        234.84004        294.61429
253.26273        239.91942        304.12634
250.23748        245.73410        262.51295
250.24771        245.91182        271.63867
248.29738        259.50836        260.77353
252.15335        263.65907        305.23035
251.91415        261.95411        313.18668
255.52104        264.01540        232.02313
250.39087        268.14945        242.21915
249.32344        270.12537        313.64060
250.48157        276.14297        244.88382
249.96705        278.08003        310.77357
252.33815        280.44942        223.87966
250.34080        279.98550        239.68704
250.18944        278.29581        299.74399
250.35947        285.44733        230.53905
250.22801        286.58679        245.14410
250.32895        285.43671        250.06203
249.65031        287.81982        254.69794
251.12879        287.90493        269.95915
250.26322        286.45901        304.34776
250.48268        290.71335        239.88492
254.81274        290.59928        289.58347
248.28009        304.97546        240.00102
254.83905        308.40042        299.33898
250.31810        311.67312        317.23289
253.66268        317.10277        228.45496
248.55508        319.75595        315.34006
250.00832        325.07690        310.28870
248.17574        326.16272        319.58957
250.22456        330.20300        215.37170
250.63069        328.32328        255.53220
250.30357        327.51514        260.54358
250.36875        327.50423        270.25607
249.22860        330.12210        280.09058
249.66152        331.64722        287.57473
251.45714        329.44800        305.05374
250.13556        334.61704        260.98013
248.15111        335.05020        318.67886
249.81361        342.86367        231.52394
251.95894        340.57238        249.40685
250.10090        340.99854        292.46647
253.38392        338.72984        315.77313
256.55754        341.92677        258.23338
251.75941        346.31407        285.15076
249.95980        349.00798        315.76223
250.25919        366.30710        311.56001
250.01111        363.51239        318.67139
250.49295        365.77649        324.72067
250.05344        374.38981        239.90356
250.19747        375.07904        253.51177
250.21139        375.03351        273.38715
252.40603        374.01409        318.29353
251.14462        379.71524        305.20990
248.38410        385.06058        255.61423
249.36320        382.67910        300.38468
255.65539        410.51349        304.31868
253.89315        419.52015        284.92723
250.30269        418.62955        300.06573
249.59909        436.93047        304.78670
249.14105        449.90164        296.99081
250.18420        454.87631        263.75452
250.49131        455.17828        281.65020
250.41583        454.95743        315.41205
250.62735        461.61069        274.71445
249.92787        460.18472        289.47836
249.14267        470.46121        265.15286
249.97710        469.15552        280.27078
249.92729        484.94186        256.53619
248.36799        491.17517        250.52943
253.61853        70.34399        245.49594
254.13504        85.07378        225.36887
254.25949        85.11253        310.43222
253.68608        90.11413        325.79501
255.57727        150.30812        280.06140
260.41691        154.20954        287.90170
252.74234        149.68722        339.27200
255.13845        163.46814        264.15294
254.28862        172.02517        261.38801
255.69775        190.48128        253.40057
257.40024        193.69963        291.30280
255.14247        195.45309        298.27054
256.76535        200.94230        241.86357
255.23145        200.74300        255.52512
252.71698        200.45387        269.69809
256.67924        202.83501        296.94785
255.16638        205.58746        271.29483
255.54108        210.02873        274.93118
255.80535        214.92369        237.92745
255.21712        215.01180        244.95515
255.01805        214.65047        280.55856
257.89687        228.42069        261.23995
255.60861        220.15773        273.18900
255.10223        225.11917        275.03430
260.19386        229.31636        277.57601
255.21512        234.82867        305.03745
260.61946        242.73640        269.88730
257.87504        245.63469        281.14302
255.24017        245.16766        294.98782
258.02710        246.88823        299.90081
253.58155        249.95769        249.14966
258.48279        250.00180        259.09096
256.64794        249.98575        270.07919
255.31805        250.16795        303.33838
256.50878        251.06974        311.18613
255.09843        253.38669        225.16026
253.51601        255.56603        229.42560
255.62299        257.05657        247.22128
257.24827        262.08088        300.29458
257.57570        270.54462        301.36481
254.71266        272.70979        309.81577
256.27138        274.09223        231.92452
255.37831        278.23289        242.62323
254.46354        281.50732        277.01305
255.27206        280.00137        299.04526
255.26947        280.57114        307.54406
255.50964        286.53393        250.41072
257.64251        290.26981        237.90167
257.04477        298.00308        248.64472
254.34302        299.04437        240.05185
255.49628        305.68430        305.33572
253.74727        319.13077        241.25733
254.61912        317.81404        306.82375
254.97220        326.08211        295.85799
255.38672        324.03150        221.21146
255.47800        327.61583        235.65618
252.68997        325.02811        250.31068
256.56549        330.41866        215.70679
260.50413        332.35552        257.35636
255.17746        330.86562        266.23913
255.69141        329.11972        315.91577
256.89240        336.80608        220.80017
255.57382        335.17007        230.74232
255.64658        333.44873        244.80640
254.85972        339.42378        274.87885
256.27841        335.39306        285.90556
255.27827        347.35546        209.34304
255.28775        343.05460        235.92838
257.58498        347.45783        292.61028
257.35681        356.32568        301.14240
255.22786        356.14999        315.87006
258.22863        365.34944        234.77238
257.57644        366.97535        245.06936
254.22330        364.65201        260.42795
255.42729        365.84418        305.26245
252.78575        371.91622        260.77427
257.56062        370.23012        284.96736
254.43671        374.82114        234.93301
259.38213        377.98025        250.36025
254.99650        375.25944        300.96844
253.59870        379.90933        239.07038
255.90336        381.80584        288.99980
255.08402        379.00641        323.96716
257.34420        385.48849        258.63642
256.70291        384.32343        278.21354
260.12435        384.53399        314.88397
255.38123        390.58421        298.62722
255.53458        400.67368        285.68686
251.36616        397.34497        308.02733
255.64610        410.54926        280.14026
254.91218        410.05524        293.16859
255.37836        413.30527        264.63904
255.45445        415.21048        274.19483
255.67374        420.12849        296.99850
253.66096        422.13916        309.26178
256.52664        430.09912        286.67319
255.05309        436.18396        275.22122
254.20526        449.58920        320.05615
257.00559        460.24170        274.89942
253.45699        470.14635        268.85533
255.33835        485.32889        249.18604
254.34749        491.27120        256.31362
260.28906        60.22625        259.36694
260.33975        65.42520        255.20909
260.66583        84.18837        234.48354
262.68233        88.83293        239.94649
259.42807        100.58901        294.07562
259.80273        105.06274        275.54370
261.44940        109.12525        290.17083
263.01003        155.43337        278.91205
260.47485        164.75154        260.45346
260.77127        167.08152        292.74143
261.79433        168.15746        264.87112
260.91336        176.22595        304.82428
263.48356        180.57892        320.94682
262.36196        185.40964        308.47681
262.28374        195.59202        281.81914
259.43805        194.15845        344.11224
259.55911        200.37866        261.29104
260.78024        200.28836        280.52292
263.77722        205.22663        248.45653
259.53751        208.60169        230.51407
262.93176        209.36209        239.88596
259.68808        210.17377        257.82902
264.79163        209.03900        272.67221
263.12089        208.77126        283.12885
260.19605        212.59998        291.51155
260.92780        210.87308        301.14270
264.36837        209.48443        319.97139
260.67497        214.87613        255.86350
266.24005        215.16399        316.38545
264.16283        220.34593        241.41961
260.67817        221.96775        251.92157
260.51064        218.97810        272.55875
264.74876        221.32530        309.60759
260.69309        228.45463        291.43115
264.24079        229.98294        246.72100
265.99684        244.75832        290.67648
260.44425        239.93896        258.22542
262.66605        243.55098        232.23054
264.12671        251.83823        229.23047
262.12345        249.82494        241.68105
262.56351        250.84828        294.86575
260.58517        255.44678        221.15248
259.40158        260.94369        250.32649
259.47940        260.17435        255.63043
258.64829        260.49231        260.66156
260.52854        258.58464        305.23737
262.59846        262.16431        313.14084
260.44669        265.12360        296.18320
262.90488        279.96150        306.42743
258.62808        282.59272        280.23035
262.12228        283.97356        289.64827
261.90583        289.49772        247.42020
261.94965        289.79031        259.62134
260.85719        295.58005        256.11007
263.62030        302.11563        305.23193
264.35974        302.83912        318.21362
260.55002        308.41235        241.67128
259.29486        310.27432        235.68887
263.20526        321.41618        244.96713
262.76572        319.87482        224.24672
263.07307        320.06158        236.44355
261.19670        329.10067        227.05566
262.52263        325.08444        235.31284
260.76752        332.61046        275.91989
267.27634        325.60498        299.51937
260.32785        334.13736        240.00208
263.98391        332.57734        246.38937
260.25891        340.35281        234.83963
258.49002        340.52988        269.94101
263.33807        338.33418        317.11777
260.56064        344.26216        212.85721
258.55079        345.28221        227.01009
258.60425        342.87439        240.05241
262.90800        344.38178        256.55096
261.89415        344.62703        301.24049
260.22940        356.31427        239.74530
266.18761        366.79224        239.63026
261.58350        365.12378        300.90829
260.69064        366.42543        310.16967
261.77063        365.82333        320.77252
263.08027        372.79959        263.05411
260.22287        369.48492        270.10278
260.99725        375.97595        255.32610
266.87731        374.95184        303.26497
260.58124        384.17853        294.89410
260.16187        390.43939        255.04880
259.42395        389.28729        269.62839
262.78317        394.52372        279.79894
260.74899        394.45023        290.22845
260.38828        393.27884        312.42525
260.63222        400.92905        285.80361
259.57535        409.29840        290.71387
259.66025        420.39767        270.36252
258.84259        435.17923        284.63889
260.45969        440.10202        273.38989
259.04810        439.32666        294.20325
261.42636        446.75358        270.03553
258.70960        455.23242        279.24698
265.32671        488.51711        261.18347
260.22345        494.26462        250.17963
265.16006        50.09135        250.03813
265.71254        56.88629        255.96619
271.49170        64.18288        255.24133
265.19749        85.82859        219.51879
263.65683        85.06300        249.89384
265.67503        155.74552        301.06387
263.76722        159.38717        256.63281
264.82037        169.39604        250.00047
269.90552        170.54930        302.58388
263.22076        175.32872        319.95167
265.81958        176.42291        325.11884
263.67792        189.83154        349.59082
265.94130        198.51234        237.48655
266.20980        201.32167        300.20118
274.54680        201.49963        311.96299
262.98484        204.44090        233.58435
270.86302        210.03559        256.06979
267.90135        208.40933        304.89581
268.64670        220.07505        260.56089
266.75261        220.15558        283.64191
267.86637        225.41559        318.34435
267.05734        230.34500        255.04211
269.02293        245.76905        225.48827
265.83603        240.08394        240.07846
263.10738        250.27054        264.83915
265.84497        250.00524        272.40313
265.15143        254.29894        244.88861
264.75049        253.42545        289.73041
264.75293        255.26294        317.92804
267.90892        260.25930        236.97760
265.64788        270.90736        230.03439
264.81436        266.78695        239.88966
265.07840        269.89407        305.27332
265.18457        271.72646        310.46222
266.08414        277.81805        243.45470
265.20737        278.60592        300.23346
263.79978        274.00145        320.27310
268.61189        286.58732        233.92635
264.60999        284.41443        295.31815
267.35997        285.32826        324.97580
266.25593        290.61879        298.64826
267.56351        289.58141        315.51942
266.21974        296.71786        292.29305
265.05034        295.52834        312.52361
269.45041        295.08824        322.37348
265.25552        315.90775        308.83579
264.98575        330.22729        235.74165
264.93776        331.14004        310.52331
266.99689        330.28506        325.44080
264.96501        339.03734        215.74657
265.07019        335.49567        265.24594
265.18782        338.02866        270.78430
266.07623        335.24402        275.32776
264.85934        335.62216        288.55780
264.01577        337.02032        294.83962
269.48076        335.45229        305.02882
265.20560        340.31201        230.64519
265.12750        345.83331        289.89328
265.08763        345.07632        294.96845
276.28522        348.95169        311.86781
263.94254        344.90088        323.99127
266.15036        349.93112        261.00848
268.89772        349.15518        282.71919
278.51322        342.63476        320.74927
263.22820        358.91537        231.31885
265.39406        368.20056        230.56231
266.13840        366.23034        254.39137
264.84712        372.49341        320.04451
268.77837        374.88304        228.71835
265.22852        385.58313        285.89169
268.41585        386.79057        301.02015
264.80359        393.74396        252.71377
266.87363        394.62258        265.89410
262.93608        409.86111        304.10862
265.01742        449.86694        278.45124
266.51324        449.87826        318.90893
266.75463        454.76410        260.95224
262.88517        451.13802        300.83529
264.59476        463.51334        260.97674
265.04977        475.30222        254.25568
265.25473        485.23984        241.18701
264.87033        490.51724        243.24521
269.85629        55.43140        245.11594
269.30950        69.31066        248.29002
270.43573        79.91829        245.31143
269.91708        99.45746        229.43175
270.46548        98.87039        234.59793
268.95819        144.22183        289.63779
269.70468        150.52272        285.64120
271.18330        158.95166        254.27166
270.09988        155.07555        304.25848
271.99762        160.02167        275.33432
271.08258        160.09869        285.29730
270.07413        163.03394        298.91652
274.18591        163.81801        243.52529
269.77438        165.42886        260.20425
268.14219        170.08913        264.57132
274.52298        170.92615        297.04871
273.38275        168.24291        323.87081
270.34604        175.22169        236.76996
268.12067        175.59438        264.93597
270.81445        176.00779        304.09117
272.92163        178.02393        316.91394
269.64865        181.00212        230.52084
269.14801        178.69374        335.05914
270.00763        184.57277        234.84167
271.83709        185.67744        241.98338
273.13752        185.58194        310.58736
269.76303        197.35086        245.03708
270.03590        200.18757        256.33620
271.78029        207.82349        236.49340
274.07018        203.91570        292.16350
269.95313        210.00299        263.89023
269.91794        209.54604        310.32996
275.79967        206.99042        320.97777
274.72746        215.55806        235.45182
269.65100        215.03784        262.93424
270.08588        216.11699        273.20416
269.78716        214.91805        285.93890
270.33096        213.05111        300.22019
270.16818        215.05806        305.17160
276.41972        218.42539        291.91987
282.65758        219.47995        254.48409
269.45795        230.49918        301.23163
270.12591        235.02919        296.96929
273.87728        243.46676        234.08591
270.52691        245.65506        251.29310
272.49898        250.08511        308.70592
269.81622        250.55098        239.57890
269.99979        250.04185        319.70908
270.01459        255.45561        245.01303
271.09576        255.14304        295.92169
269.89211        257.65520        251.90734
270.12354        260.63553        310.43991
274.01768        261.62353        324.34785
273.94912        262.79541        227.25926
271.85549        264.94151        305.58942
269.10180        266.86424        315.78693
275.19955        275.19960        309.53744
273.98364        276.18645        316.81923
269.97115        293.82756        247.04680
271.21176        294.63107        235.07188
270.22919        294.45804        306.94690
270.54094        305.29570        244.40808
274.13805        304.02130        299.42373
269.75729        304.92343        321.20935
270.01784        310.36574        302.22636
273.89754        319.18720        239.13636
270.16049        325.22876        308.57111
276.28913        328.41528        249.85969
269.93518        329.86221        319.84192
270.37476        336.37290        220.46011
274.82579        334.26678        235.82068
273.62471        335.44915        271.34115
269.87359        335.51381        286.38766
270.02301        335.59888        328.97110
273.15233        338.71986        251.58426
269.88303        338.66208        263.13144
270.43622        339.31992        280.22812
270.42422        338.96996        294.93945
270.15365        337.78250        314.92415
272.59581        342.80785        330.75724
268.12144        344.63171        225.73651
269.98532        344.74005        234.61005
270.05187        346.56971        256.57425
268.97556        345.96793        264.95392
272.78633        348.91817        274.09716
270.18048        365.75174        259.58176
269.05371        379.92011        242.39094
271.10348        380.24731        255.35423
270.94519        379.15881        285.72543
270.35632        380.22412        300.03381
269.87935        382.25362        324.34688
272.01349        384.85767        234.84413
269.87211        388.04650        258.34186
270.43564        385.45306        276.21451
268.80808        388.77896        312.86351
269.96181        397.39134        278.48764
270.01456        403.95526        286.45990
268.96326        415.41724        288.93607
269.62067        450.01666        264.51260
269.74902        479.97543        252.53884
272.45932        490.77528        241.99202
271.89636        493.76266        250.48193
275.34747        56.30751        245.51155
280.42987        55.64400        252.40551
275.58841        60.06398        242.02012
275.13496        65.37330        247.96782
275.26752        70.12452        245.25941
275.25754        100.97865        319.73529
275.36342        157.28112        290.63012
277.60972        159.20195        268.03542
277.98015        159.94049        301.38589
275.24430        165.13660        288.89097
277.05496        172.55298        255.39546
276.43004        170.49358        315.23492
273.23277        175.56614        260.16165
274.12744        178.58630        226.44262
277.19541        180.47741        238.09038
274.24594        176.89814        249.32053
275.01639        189.73956        334.34537
276.84902        201.06628        275.14249
275.38550        202.66878        256.57947
278.13194        207.98661        330.89834
277.93305        212.15336        251.16347
275.27089        210.08572        278.16890
274.93195        211.09561        295.00357
275.38504        214.71524        245.26709
276.77454        214.94957        271.34103
280.77959        214.76714        304.42770
275.29144        215.23631        315.32407
275.00256        220.07387        308.45096
275.20529        223.53240        315.80849
275.07899        227.05567        308.96369
277.91620        231.57083        240.11605
283.67911        224.02734        299.75966
279.54066        243.77454        243.85493
274.01585        238.71942        296.19983
276.26115        246.37795        299.42402
279.15405        245.21720        322.69665
273.99492        250.58635        260.25958
275.30618        250.37375        319.70145
278.22858        255.06856        235.39421
274.55874        257.01744        243.44838
276.29736        254.27449        255.35844
275.18564        255.46594        305.59314
275.23870        257.45695        315.85268
274.92774        257.66834        250.40907
273.22046        264.84122        239.92241
274.12268        269.78039        224.26391
275.21552        273.81807        233.22853
275.65685        278.46193        223.75590
275.19202        275.19186        245.76529
275.17352        275.17352        429.57306
275.68211        288.25008        227.80646
278.88672        285.58365        239.80239
278.54326        285.45723        305.58890
277.10773        288.61577        323.90623
275.84011        293.38160        243.44819
276.24000        291.46453        313.71433
276.42316        294.91339        222.21443
275.45007        293.84561        250.46942
274.10199        296.12500        255.35835
275.21356        294.93365        305.59341
281.37603        304.63015        225.48822
277.01874        299.80699        260.24025
276.71267        302.26012        309.56741
279.56387        300.42819        319.57118
277.06043        307.25918        233.87947
276.38259        311.67926        296.19983
275.32040        323.34372        308.96366
275.19440        326.86717        315.80824
278.80070        329.17149        297.71383
275.39709        330.32550        308.45044
275.01443        335.68445        245.26668
275.10748        335.16284        315.32385
285.41337        339.38577        256.63876
275.23361        340.31805        278.39902
275.46744        339.30408        295.00290
278.61888        342.57544        236.49343
276.34716        346.65222        291.89198
275.21497        348.77057        257.08839
278.56163        364.72138        241.98349
277.26153        364.81723        310.58725
279.59100        375.99055        229.03112
277.48713        371.80982        324.07519
275.38190        374.59326        250.13095
277.88986        374.91370        255.46584
277.56084        379.59700        299.25819
277.42117        374.64912        305.16716
278.24225        373.56204        313.12084
276.21285        386.58072        243.52538
275.15313        385.26101        288.89109
275.33758        383.20087        324.26933
278.01654        390.77888        255.39872
274.82432        391.82079        290.86768
275.19208        407.24338        288.60584
275.12967        449.40854        319.73526
276.41824        449.23871        351.03982
279.16439        485.48276        253.71385
275.04990        494.09015        245.51147
285.89526        61.75753        261.03501
281.98045        65.37600        245.05839
280.14993        91.57519        304.03806
280.52435        95.20694        260.76752
281.42959        134.97565        288.93594
280.11043        146.56896        286.67371
280.43741        153.00779        278.48758
280.32837        159.94496        255.33395
278.38510        165.54102        234.84407
280.74939        165.06436        256.66022
279.96140        164.94399        276.21475
283.25505        164.36250        287.78112
284.51157        165.14699        300.35225
280.34625        167.11096        324.81104
280.04211        170.17401        300.03360
281.62034        175.51552        228.71861
281.47952        175.28611        301.87420
280.72452        178.48256        249.03445
287.59307        180.42774        310.26525
285.45261        184.20682        239.91837
280.21637        184.64517        259.58176
282.41948        201.35122        263.18779
280.71054        201.70679        281.60617
282.27737        205.76761        225.73668
280.41309        205.65817        234.60988
280.37833        203.81621        256.78229
280.59628        211.66995        264.55017
279.96332        211.07915        280.22836
279.97498        211.42978        294.93933
279.82486        214.35197        220.73751
280.32513        214.95056        316.59405
280.37619        214.79994        328.97110
282.23705        220.31284        225.36345
280.22678        217.33463        236.62272
280.47852        220.11452        308.48346
280.38498        221.56105        319.35157
280.23847        225.16960        308.57111
280.38121        240.03321        302.22681
278.33253        245.26183        314.40497
284.46044        253.77103        292.51885
286.03912        247.55961        318.21414
280.40283        257.21539        247.20396
280.28583        255.24281        308.46170
281.78816        257.98516        319.09533
281.73036        262.60627        233.85205
285.56979        259.87957        299.01571
278.39798        263.75177        310.53250
285.21820        280.91004        229.30368
280.38293        275.28015        237.79605
281.29743        283.53517        315.78666
283.14425        291.30121        234.95461
280.38428        294.94333        245.01360
280.72464        300.70765        285.55342
279.30377        295.25623        295.92157
280.25299        295.87326        305.64197
280.58307        299.84824        239.57936
284.55412        300.39374        272.40354
280.24468        305.21426        250.96413
280.25488        314.48788        238.79607
281.12348        316.59827        299.26479
282.53275        324.98354        318.34410
281.49258        332.55410        261.47779
285.01579        327.84734        281.72292
285.65029        329.07385        309.60760
280.39123        330.11917        316.51162
280.55304        335.81342        244.80470
280.29216        334.28006        272.96842
280.13467        337.41274        286.52739
280.23108        335.34143        305.17166
283.19892        336.05412        315.69094
280.36727        341.14843        263.55659
280.14951        337.86885        300.18872
281.12115        350.14340        255.98903
279.98618        349.87759        280.67355
280.64301        353.27503        245.01785
281.25430        353.23892        250.26822
280.39075        365.82614        234.84164
280.53564        365.16019        315.57214
280.05273        375.17685        236.76974
281.32808        379.83914        289.60332
279.30139        380.01822        316.90243
280.17679        381.13736        323.19715
279.96097        386.64130        298.50440
278.28021        390.28387        265.20956
279.10196        390.27304        280.12988
279.31564        390.29993        285.29730
283.46065        395.15114        280.33558
279.90401        397.65001        285.62059
280.29706        395.32117        304.25861
278.43051        400.21018        278.69458
277.71256        399.95084        295.12122
279.95499        470.47250        245.31137
282.85744        494.33619        255.51786
285.22626        63.45503        255.63397
284.33609        73.81323        250.45091
287.51113        99.25817        300.83532
287.35400        109.27217        282.19323
285.19540        124.01613        278.63633
285.72544        154.81703        264.84456
287.61568        155.87516        279.79900
286.00406        176.63900        262.43141
285.55180        177.90575        320.04456
285.94974        183.15176        230.55768
283.82172        184.06800        252.14516
285.80603        182.80735        268.78861
288.81495        185.27476        300.90808
285.41682        205.55066        257.53885
285.27167        204.56566        289.89319
285.60492        205.30110        294.99152
287.67470        209.53521        324.59391
287.67128        208.76399        214.40584
287.44438        213.51083        230.31010
284.47507        210.06854        271.13242
285.57036        212.77509        317.33016
285.82312        215.15193        246.29060
285.32925        214.90340        265.24576
284.32199        215.15419        275.32770
287.85382        215.00484        282.84505
292.08263        221.08233        236.73856
285.72870        220.34242        246.37176
285.34854        219.86357        310.49173
283.40296        220.11464        325.44049
287.74373        225.20232        225.42801
287.87613        225.31481        235.31272
287.42822        230.23197        244.63426
287.63301        230.52392        224.24685
285.68600        230.07118        239.79509
285.00683        234.32169        307.39724
285.31851        239.93893        312.83057
286.13257        249.28631        303.90152
286.17190        256.10694        311.83178
285.78885        265.98416        295.31784
283.19204        265.61349        323.47326
284.37848        271.94238        243.84244
287.51114        269.61778        299.68147
288.87482        269.79977        306.93058
285.21467        278.67288        310.46191
285.32193        280.50601        305.27301
287.78833        280.54968        320.26294
285.58475        283.61258        239.88971
287.19914        285.41893        305.60350
284.38297        289.87924        239.85057
288.61702        288.55426        315.67657
286.98775        298.82145        229.74450
287.11276        299.27154        242.98598
282.85194        294.97501        251.51014
287.89719        298.02676        292.48178
287.41190        305.37445        233.61608
288.62283        299.23630        264.22553
290.05620        307.95308        269.75248
287.18713        309.84690        294.66650
286.55397        310.14441        230.85442
284.56332        310.31522        240.07846
283.48096        308.46915        245.00502
289.95530        310.46055        258.22570
284.79939        315.49536        251.49578
284.23767        319.98401        255.01448
288.27389        326.91377        238.83445
285.35855        334.21353        241.13580
285.45709        335.49384        250.11223
285.45489        332.68849        273.16434
287.46790        341.03796        239.88596
288.38703        341.23757        270.12893
283.33309        343.55281        306.33014
285.44852        344.89850        245.38266
285.48392        343.65634        284.46027
285.04746        351.63162        236.90783
284.47608        349.07098        300.10248
288.03633        364.98860        308.47692
284.83727        367.65636        320.24892
284.57886        373.97547        325.11884
286.24394        380.95378        250.32353
283.40271        380.19229        264.55621
287.33183        390.16884        256.76037
285.41098        390.23938        305.09579
289.22191        394.95320        288.47632
285.41455        395.11354        301.45403
283.45750        404.08100        278.57506
282.62931        405.12820        289.62009
281.51545        435.54194        262.49116
284.35318        460.00235        290.52515
285.19311        464.56201        219.51874
285.55350        483.94513        250.22517
289.50925        65.03829        250.13628
291.92086        90.18566        275.57559
289.78461        93.80068        309.56961
287.68747        99.82077        331.18185
287.89726        104.84605        268.71841
292.01421        141.39248        301.84852
293.84428        140.17996        264.99894
289.76686        149.46993        285.80382
290.32377        158.94528        254.64413
289.64914        155.94798        290.22873
291.62702        160.56702        268.71603
290.05887        157.87972        310.39429
291.79683        165.75849        276.70406
289.84955        166.44787        294.86282
290.18491        165.26845        315.47641
294.45621        168.83307        288.73941
290.15192        170.20891        311.29187
289.40164        174.42279        255.32605
289.56152        175.39815        289.97287
291.99336        184.60423        245.25424
288.62818        184.57561        320.77219
292.84587        190.06864        248.79526
290.16794        194.08324        239.74533
293.42962        212.36862        221.66127
289.68976        205.27502        282.19033
290.14014        210.04607        234.83954
290.96048        208.56125        239.56009
291.60239        209.85979        266.90035
290.07080        216.26124        240.00165
289.56909        230.45581        233.74193
291.10382        240.12430        235.68918
289.84938        241.98711        241.67121
295.56258        242.20689        299.45816
292.40467        252.85618        250.19540
292.20074        259.24912        238.55092
289.59708        254.46831        255.30679
289.59164        261.64572        249.93535
295.50398        260.53409        284.20022
291.08560        268.28847        280.28754
294.19636        276.62604        232.58242
291.90808        279.26826        301.50768
294.78237        286.46229        232.41177
289.95230        285.27542        296.18326
291.95796        287.63972        250.22513
290.92022        290.22498        255.62999
293.15111        288.31852        300.29444
289.81436        294.95282        221.15259
289.89885        293.11693        305.34383
289.72269        302.68855        256.41125
293.26464        302.04084        280.21556
292.37245        303.51095        299.90082
291.93185        302.32041        309.85400
290.91147        310.64136        283.65551
291.34601        318.53993        260.35799
289.99500        315.52884        285.79803
287.02299        319.89904        246.69417
292.60696        319.78689        276.85334
289.92804        323.88819        293.14169
289.70404        328.91221        251.70130
293.70968        326.29976        261.87074
290.86133        341.79715        230.51453
289.75693        340.62842        282.63402
289.80095        338.18383        292.34509
289.47168        339.52652        301.14230
289.81036        344.84152        250.04018
289.85596        342.04581        275.14444
293.71993        347.56381        296.94751
295.03350        345.33786        252.87654
290.83931        350.01970        261.29104
289.61874        350.11078        280.52286
289.87535        349.31705        287.68234
293.83890        349.59358        241.91273
296.92798        356.36268        278.22236
293.69049        355.58101        295.84793
289.87961        368.87470        335.10059
289.11069        375.76963        307.38052
289.35043        381.71461        266.89823
289.59718        382.85256        293.05516
288.15340        378.28174        314.55389
289.75205        399.02003        254.47870
289.60934        435.89557        355.99444
289.34723        442.05602        290.30615
290.59216        445.33212        275.54364
290.78451        444.43771        350.27869
290.07758        464.20557        246.38428
289.72359        482.34190        253.12186
289.32117        490.07274        257.45889
294.88940        55.10769        249.90552
295.99351        67.19521        249.68924
296.93996        80.25073        268.85508
296.07037        85.00011        271.12869
295.00726        96.82188        313.40366
294.69424        100.21535        359.32691
294.29895        105.69170        295.69604
293.20341        108.94202        280.58993
294.16492        113.32918        320.87427
296.05202        128.58537        308.89846
297.67694        130.24353        283.71862
294.80569        130.57089        298.49881
294.94424        135.18854        274.19504
295.48515        140.34182        293.16864
294.86386        149.72482        285.68716
294.56982        154.47087        289.77063
295.23315        160.05240        198.81267
295.79169        159.87618        297.48643
292.90564        158.98320        305.30493
293.07346        164.17102        319.58673
296.79950        170.48862        239.07041
294.72305        168.32858        260.51691
295.31399        171.39131        323.96747
295.54575        177.64866        233.67479
295.07140        174.98194        298.99629
297.61311        178.48252        260.77406
294.85126        179.64946        285.24353
294.57951        183.64540        305.27757
299.39299        182.05823        325.60631
300.55131        188.68446        234.97500
295.28284        202.97817        209.18214
294.91836        196.84247        320.99404
295.29562        207.43768        255.90319
294.69892        205.69302        294.02722
298.38828        209.77545        249.21787
295.53952        210.97592        274.87841
297.01480        211.66884        315.77301
294.82507        215.22958        230.74237
294.69418        215.07657        285.51437
294.65396        220.27388        260.75690
294.92547        219.98365        267.40252
295.60096        223.86984        295.18277
294.70779        221.27954        315.91574
294.83784        225.51055        222.98123
297.24049        231.44662        228.10666
296.76068        231.51005        241.20046
295.78028        232.58509        306.82347
296.06345        239.79773        305.63831
294.90320        244.71448        305.33621
302.93063        253.54359        230.09549
297.40241        250.72731        239.18144
294.79376        251.52965        245.07549
297.16952        256.57224        296.81264
298.93158        259.50347        264.21344
300.50645        264.18346        224.71291
295.17719        262.85984        244.84232
294.88950        263.86450        250.41075
298.74081        269.66876        223.25062
295.02042        272.16601        242.62275
295.93534        268.89212        277.01308
295.12671        270.39764        299.04520
294.94843        269.94043        306.44949
293.70322        278.15433        239.89484
295.68607        277.68912        309.81545
298.18609        287.02012        305.23194
294.86930        292.86989        246.23217
296.88264        294.83279        229.42570
295.08185        297.17554        312.18732
297.93425        299.66495        247.31153
295.07117        300.00745        263.68106
294.79184        300.46313        270.03702
299.08257        307.18241        288.28137
305.54066        303.34931        302.95633
295.15945        305.23132        294.98795
297.13693        310.48001        304.12621
295.18436        315.57074        305.03717
297.50402        326.86813        241.58332
295.29758        325.27963        275.03470
294.79086        330.24161        273.18909
297.65149        330.09545        283.12879
294.59351        335.47511        237.92759
294.08454        337.57901        244.99341
294.85840        340.37051        274.93134
295.58150        344.97620        287.77544
295.21740        351.99243        266.11078
294.85138        348.79666        280.24054
295.13376        356.24533        289.41135
294.69962        359.91638        253.40050
292.11220        366.25447        320.07816
296.51177        377.71506        260.98540
295.21597        375.38998        277.19202
295.26059        386.93042        264.15286
294.57233        385.66080        274.15946
297.57797        390.18340        280.62357
295.28886        398.60309        277.58949
294.67258        404.99918        244.69849
295.97991        456.61880        225.20820
299.07068        64.28772        262.99967
300.41861        81.24026        280.27078
299.90641        95.21947        281.65011
299.03238        95.35594        296.94470
299.98154        95.44016        315.41180
300.10597        102.42813        270.70924
301.36920        111.98997        304.41553
300.09497        131.76890        300.06525
303.89486        135.04105        268.45791
299.02399        135.87981        308.40396
298.19776        139.78090        277.56755
307.30800        139.82267        300.95153
306.46863        145.05477        266.68033
299.83435        143.65566        290.81689
302.24737        160.23013        310.20958
299.89566        163.98944        276.94078
301.03496        167.71899        300.38483
301.21946        174.43646        239.34511
299.25336        170.68330        305.20981
304.24969        180.00699        250.16157
300.18689        175.36430        273.38715
302.74407        185.19255        270.69938
300.84455        184.99076        311.92578
300.27805        189.99391        247.28557
299.18900        193.57595        255.61484
304.06299        192.56397        315.06436
300.12527        194.11183        324.07901
302.36382        209.59328        227.53162
299.40326        207.79570        285.48376
302.68086        203.28747        322.10591
300.38069        209.83752        292.48431
302.55765        220.86945        232.49881
300.26324        215.78133        260.98022
301.75891        219.65314        215.71578
302.55087        222.69058        239.84443
301.25407        219.73191        245.92151
299.39249        222.69128        255.33854
301.16949        220.27636        280.09073
300.26724        219.04629        287.63892
300.20676        218.87334        300.11203
300.23660        223.36429        310.51273
301.84311        220.39565        315.70689
299.87408        225.15121        225.64517
300.13693        223.27980        260.60168
299.73966        224.05347        270.98459
302.22339        224.23628        319.58887
301.84313        230.64278        315.34015
300.26971        238.04649        316.68259
302.11862        245.42317        240.00108
301.03656        249.13905        259.61368
299.91663        259.68604        239.88492
301.29346        261.86176        254.33655
300.04019        264.95221        230.53859
300.17114        263.81253        245.14421
300.06873        264.96136        250.06194
