ply
format ascii 1.0
element vertex 1408
property float x 
property float y
property float z
end_header
197.252634 208.839768 173.048819 
198.262524 209.612963 179.483943 
201.092773 210.587330 195.998116 
201.951844 210.871837 203.395515 
196.174713 209.482552 171.972239 
197.902964 211.607987 176.462363 
197.598090 210.394534 180.677948 
200.476254 212.031361 195.593521 
187.267354 207.102181 127.597350 
199.690230 213.535967 194.162847 
187.973325 208.917237 126.964460 
190.386210 213.928730 147.787311 
192.984827 215.537135 165.300032 
194.584068 217.110441 175.431274 
190.112915 215.593187 142.562032 
190.618774 216.108485 148.113104 
190.063864 215.093138 151.915191 
196.716444 219.433656 185.450162 
197.572039 219.584417 190.853422 
188.986510 216.066884 145.024122 
189.693359 216.258993 148.699945 
189.571921 216.710043 149.839175 
195.078927 219.428948 181.692045 
183.434573 215.681886 116.909991 
181.551773 216.405868 110.465668 
181.971151 216.074849 112.130464 
182.515731 216.389486 114.853789 
183.005034 216.465839 116.030990 
191.020178 222.857815 162.239495 
192.556721 224.979195 173.986368 
190.469307 224.552920 162.460094 
182.333324 223.952649 120.782053 
195.277365 229.033927 189.783672 
194.196975 229.280311 188.085801 
198.758164 231.645606 199.128986 
190.058621 230.834200 168.136736 
195.186689 232.560980 193.670269 
195.570774 234.707641 198.371596 
178.675852 226.764754 108.012474 
182.421472 229.244472 128.433375 
178.658940 227.830938 107.572623 
181.208192 230.002324 123.314745 
181.595221 229.728530 126.866882 
187.257437 232.134994 148.128935 
192.860718 235.168242 185.204079 
178.886320 231.497293 115.103103 
187.072857 235.064726 150.448543 
186.777625 235.339874 156.432409 
180.026841 234.624880 121.366279 
184.922989 237.547347 151.897415 
191.847685 241.954573 186.416582 
194.710295 242.951000 201.882424 
191.214021 242.516542 184.268441 
192.287851 242.873971 185.154989 
194.904938 244.266502 202.436257 
189.679452 247.449598 180.797039 
189.237780 247.062527 183.455189 
212.088846 137.109657 159.157343 
215.725847 145.303808 190.717099 
215.341940 146.041854 189.361280 
209.047745 144.709756 157.330352 
210.087911 149.042111 167.971943 
208.702441 151.047864 162.464941 
209.385407 151.636361 164.416659 
216.565911 156.210686 196.846768 
216.147146 159.669176 207.231941 
212.413086 159.167485 179.929041 
214.182216 161.640076 187.895610 
213.687888 161.649485 190.165233 
214.099631 163.693721 194.009295 
213.673068 162.285012 197.960081 
206.023795 160.415608 161.839820 
214.092392 163.760547 197.940184 
214.375192 164.068736 199.326756 
207.108553 164.117048 166.333583 
213.236508 164.796397 189.502917 
213.989706 165.409848 199.333388 
215.118669 167.056128 207.422682 
206.220345 163.343632 162.887937 
212.611990 177.738565 206.396970 
209.733461 179.235624 198.135224 
212.803128 178.430686 207.747408 
204.393684 175.686464 168.954538 
204.132295 177.729364 170.623172 
205.791107 179.035034 178.914268 
207.310899 179.868626 187.819851 
199.665973 177.380874 147.029180 
206.212278 180.609730 178.809278 
206.984441 181.307527 187.646286 
203.823121 182.352448 171.902996 
206.133845 181.608386 177.983703 
207.356120 182.931427 182.706530 
209.501351 183.936266 201.731676 
209.651396 184.567954 203.391349 
210.507041 184.950969 204.660670 
200.279285 180.477115 148.333286 
208.939612 184.798348 200.191811 
199.196253 181.917915 149.931992 
199.374393 181.978516 151.477154 
204.211934 184.832515 177.314761 
203.796484 185.934311 177.077517 
198.538071 186.550210 154.093890 
206.179268 190.399797 192.376049 
206.656220 190.840265 195.327792 
202.539691 191.143398 174.488176 
201.874237 191.616945 170.441843 
207.327354 194.521153 198.136244 
200.632391 192.905004 166.283889 
207.102363 195.877954 198.795979 
199.350553 194.012469 164.676863 
199.689349 193.770421 165.944934 
205.035926 199.070966 193.709221 
199.296054 199.120621 165.318727 
202.440721 198.943188 182.379200 
204.983815 200.508578 190.777835 
204.633583 199.902534 196.392079 
204.677300 199.653578 197.774195 
196.917744 197.660163 152.790190 
196.706794 199.125697 157.418943 
201.385804 200.431403 181.496644 
202.778300 200.733150 185.741832 
190.828082 196.154793 116.325237 
196.350994 199.209728 155.509125 
201.826895 201.213124 175.918836 
191.817548 196.934646 118.091640 
189.908411 197.788536 119.993491 
194.215314 201.876654 150.081634 
204.039832 208.470199 204.502844 
189.612569 201.908347 114.292424 
196.955053 206.264433 157.649411 
198.105271 207.295668 174.714928 
204.848158 210.830878 205.558614 
189.268589 204.886765 122.879865 
195.718619 207.274888 156.319718 
202.798837 212.184958 201.330477 
197.190707 208.994879 160.436100 
196.618284 209.031228 161.955954 
198.551590 210.732342 175.985471 
198.771960 210.735295 180.384820 
189.236303 206.997468 125.553758 
188.494926 207.459719 126.967121 
198.783756 211.879605 180.810456 
199.660373 212.781304 186.609824 
199.700660 213.462711 187.906269 
200.891706 214.004914 191.925212 
190.749415 212.004007 141.578461 
201.024351 218.575959 201.740402 
201.409194 218.606662 202.933886 
195.822389 218.096650 175.480932 
190.803653 216.510100 144.814691 
184.682566 216.088190 116.775831 
183.753753 217.638018 115.280414 
192.059075 225.610553 161.215508 
193.735545 225.532345 173.677723 
190.108275 224.860888 148.980513 
193.418620 228.067203 170.504315 
194.210791 226.967415 172.353690 
194.505026 227.566763 173.558019 
194.330264 227.042073 174.741408 
183.177032 224.550684 119.509857 
195.147102 228.225894 174.673511 
182.965261 224.987141 108.092035 
196.685370 232.644470 193.523077 
182.093198 225.609417 110.756021 
196.139091 233.084979 187.075034 
180.822679 229.135374 107.653550 
184.091921 229.410888 128.410301 
194.723945 234.275656 185.690998 
194.119235 235.655251 184.189629 
187.183870 234.254528 149.569136 
198.917504 240.662128 203.096510 
182.069224 235.192107 121.858450 
187.003525 237.472395 146.693212 
181.506457 235.736096 122.626006 
193.317383 242.465166 178.951677 
196.214092 243.180493 202.525264 
181.526953 237.106874 122.717656 
181.815060 237.571706 125.780429 
181.603131 237.356038 127.003233 
192.613268 243.624078 181.735129 
192.505248 243.365500 183.320592 
182.976833 238.548306 124.265643 
190.876727 245.932092 180.478005 
216.018830 137.312761 167.799254 
215.513273 138.917833 168.590597 
215.052865 140.006061 168.374100 
211.797326 142.491722 157.643719 
217.248762 145.073738 189.542969 
211.260125 143.762200 157.438705 
216.997461 146.294760 189.453408 
210.766752 145.181513 157.485455 
214.102268 152.202128 178.336381 
210.742653 150.454748 166.600686 
220.701970 155.686535 202.070575 
218.165465 155.157320 191.040631 
209.807459 153.542027 155.541509 
216.483741 157.174044 198.170174 
217.417531 156.920489 199.404571 
214.166426 159.993659 181.519209 
218.391352 159.175774 204.741997 
217.330058 159.937792 207.290962 
209.062989 155.539587 155.188703 
209.441185 156.691402 152.820430 
212.107913 158.409770 165.537517 
214.971471 162.122055 197.975644 
212.615107 160.039189 170.530684 
212.153541 160.759119 179.628960 
213.735478 161.719193 185.801815 
213.840900 162.237286 191.754918 
215.348998 162.982487 199.085326 
212.830185 162.938828 185.703840 
213.743341 163.182565 188.657020 
213.359090 163.310112 190.201234 
213.608857 163.434032 191.809030 
215.001939 164.214778 200.440595 
208.413128 163.738533 167.294019 
212.503039 164.268067 179.214777 
214.740525 165.540445 196.137904 
214.464637 165.441883 197.770991 
214.933015 167.135437 196.966356 
202.785311 163.408119 133.660320 
201.658279 165.515060 135.018483 
206.648838 170.272482 165.578515 
213.480911 174.433579 199.494321 
213.188979 176.908419 203.526714 
212.890002 177.583017 204.859550 
211.277719 180.046387 196.756499 
211.653864 180.303524 198.307293 
202.749518 176.699040 141.564344 
202.276743 176.801873 149.298725 
202.228970 178.040703 140.350158 
201.125612 178.526766 146.891681 
201.871571 178.712343 148.023860 
202.280413 178.078702 149.821784 
207.027587 181.496542 180.181192 
201.960796 179.504204 149.258200 
205.284232 182.277582 171.856017 
211.897389 185.820933 198.862585 
200.628848 180.204666 146.688416 
201.164631 180.870974 149.407289 
201.041750 181.168332 153.060315 
207.471906 183.290517 177.388981 
208.624814 184.941097 193.307218 
200.074138 182.629697 143.707715 
200.860159 182.144241 149.672818 
201.206252 182.705294 154.371985 
203.669522 184.885853 167.783937 
201.318665 184.503342 154.861449 
207.733174 191.124676 193.706980 
209.160162 192.041860 194.580889 
209.374779 192.445974 196.134440 
202.345531 190.417307 167.599740 
208.348747 193.300194 197.645390 
209.115095 194.276133 202.472913 
208.162022 194.744852 199.238392 
208.710462 194.744379 200.848832 
206.770485 197.339907 198.049528 
202.550885 197.382331 176.590444 
204.164883 198.666355 182.667119 
204.975018 199.038607 188.630922 
203.234220 198.406102 170.850744 
203.000429 199.389082 176.052200 
203.419156 199.253489 181.133457 
204.855101 200.842288 185.142041 
193.267965 197.537105 122.627047 
202.976340 200.367750 180.863317 
191.966949 197.291687 119.672767 
194.349559 198.200925 127.661470 
194.211925 197.525081 132.627519 
202.795590 201.657503 180.740123 
190.303086 197.447528 114.743771 
194.898743 199.151193 131.655282 
205.373843 208.826045 200.054291 
205.832581 209.736392 199.838632 
205.218205 210.206275 203.244331 
197.101124 208.212175 153.418352 
197.562407 208.266206 158.948940 
204.477041 211.357189 200.847908 
189.023431 206.521798 112.100255 
195.119873 208.257587 151.673817 
195.944758 208.537191 155.931392 
196.277367 208.512714 157.406039 
204.127548 212.649462 200.838160 
189.635263 207.084362 122.521896 
189.722299 206.908358 123.859683 
194.382708 210.604747 141.055314 
194.422499 209.920932 146.592901 
201.011819 213.767167 187.068563 
201.480637 213.459388 189.281598 
189.328157 208.794946 121.626344 
195.150895 212.072457 144.027763 
192.357943 212.044091 141.796965 
191.621050 213.485428 141.920089 
197.395708 218.375421 170.567798 
192.150983 217.021858 148.127807 
186.024119 216.879492 116.275347 
192.498405 218.496654 149.237079 
196.815156 225.744170 177.083401 
193.275270 226.201682 162.525916 
193.886949 226.212510 164.018524 
195.947926 227.188319 175.903981 
184.487917 224.918961 118.925606 
190.402382 226.333236 148.810348 
198.584663 232.389857 193.751255 
190.677506 228.890175 147.495554 
198.946889 232.089559 196.003580 
186.953206 227.159329 119.926122 
186.814444 227.772603 128.056156 
182.177740 227.063854 108.280885 
185.688320 228.997600 128.193241 
189.868720 230.973663 148.533035 
195.982521 234.408506 185.427133 
196.675889 234.159086 188.056009 
185.273081 230.318023 128.194997 
189.502746 232.551020 147.870953 
195.948623 236.010657 183.620594 
199.997356 237.909671 202.148899 
185.095481 231.751368 128.088524 
188.678893 233.625621 147.840908 
192.742754 236.422955 160.240119 
193.609739 237.310859 167.984384 
199.179410 239.089053 200.389783 
199.404184 239.219586 202.357880 
188.421229 235.085724 146.969707 
193.623959 237.962565 175.612111 
195.625457 238.608389 178.300548 
199.275028 240.402527 200.187089 
198.877610 240.525253 201.717827 
199.249633 241.531998 204.408649 
199.886064 241.903604 205.626391 
194.402619 239.970156 179.322755 
198.626458 241.968388 202.376398 
187.424653 238.514820 148.049568 
193.443418 241.881316 181.287981 
197.690728 243.076852 202.425012 
182.510814 237.747558 122.264157 
187.399364 239.623912 147.560314 
192.989992 244.076158 180.170187 
218.128263 140.731443 176.400671 
213.890190 139.381492 157.512142 
213.392863 141.961378 157.976736 
218.527996 145.521684 189.194003 
212.728319 144.049131 157.935743 
213.096118 146.081719 157.502012 
212.098892 146.768100 156.985430 
219.727444 154.891785 193.705466 
218.179995 156.283900 197.859555 
217.485557 156.488695 194.976725 
217.725369 156.805449 196.515370 
219.376199 158.041090 205.220760 
218.535202 158.549327 202.940064 
218.727135 159.112418 206.541268 
209.332687 155.845599 153.786624 
210.429847 157.423113 159.728846 
212.615490 158.999403 166.894480 
209.211355 157.218916 154.909701 
211.118892 158.271819 157.918644 
212.178971 158.932570 163.728122 
212.537078 159.914548 168.621878 
213.502721 161.303418 176.199454 
213.506463 159.846095 179.613234 
216.884254 162.838219 199.047494 
213.285519 161.996658 174.520081 
213.933453 161.076646 177.417569 
214.678542 161.888620 183.618997 
213.461718 161.949777 172.943297 
212.752609 162.894071 179.238212 
213.510081 162.863257 182.341413 
213.659267 163.037327 183.718012 
216.163664 164.121989 199.131190 
211.419151 163.548958 167.743737 
211.730042 163.341337 174.373707 
212.770659 164.302572 180.549904 
213.116993 164.594442 183.852841 
215.016002 167.023049 194.800193 
218.490799 171.321264 202.497551 
202.753511 165.595186 133.612340 
202.739065 167.665348 134.913550 
202.998514 167.958162 136.204765 
208.350597 170.923391 166.384804 
214.146126 175.664224 201.301949 
208.652064 174.089219 169.399791 
214.180815 176.466020 200.278866 
214.272750 176.858097 201.531394 
214.152774 177.164702 202.823633 
213.790207 178.422351 202.297793 
202.772033 176.912289 143.157606 
213.574191 181.758245 202.668155 
203.405834 178.639617 145.236296 
202.341288 178.713729 146.386655 
213.279814 183.134974 202.791561 
202.217882 179.103733 145.139845 
206.625742 182.576126 171.777982 
207.846841 183.035534 173.001688 
207.986997 182.754355 175.314473 
212.574469 186.832050 200.627127 
207.882511 185.642223 177.672265 
202.604799 184.420645 149.635389 
205.596787 188.054394 171.765064 
201.844435 190.264482 145.017464 
200.687709 188.639773 146.888546 
209.334531 193.882489 197.774811 
210.398806 194.240876 199.167376 
210.873693 194.313392 200.545643 
211.061447 194.417393 202.257544 
201.955992 192.195063 151.058945 
208.837438 195.758718 199.118325 
207.543871 198.405751 193.526780 
198.254383 194.048020 138.207766 
204.032277 198.236550 172.608668 
201.721237 198.493272 164.840673 
204.368653 200.085922 179.596493 
204.660062 199.432696 180.600012 
209.731050 201.766632 199.118725 
194.362510 196.281590 127.322569 
195.483422 197.741668 132.581176 
194.267717 197.506434 123.680614 
197.403306 199.020805 137.434170 
197.248165 198.765830 141.730384 
202.785862 201.303390 174.624576 
194.808997 199.946699 130.247255 
196.959358 199.912806 134.801983 
206.738103 205.537380 196.094441 
190.449813 200.650555 113.586622 
203.699809 207.075605 174.651269 
204.615733 208.442302 189.372369 
207.627429 211.018767 192.413941 
196.872221 208.586160 146.929427 
191.979481 207.587771 117.215619 
190.482582 209.180312 121.078433 
190.544463 207.762774 121.898934 
197.466761 210.528853 148.785041 
196.544466 209.784487 152.570232 
204.323339 215.333162 195.972276 
194.928776 211.244517 146.180096 
194.771897 212.389008 145.833221 
187.710202 215.025636 115.395443 
190.649152 215.759339 129.144194 
194.513514 219.103487 148.991428 
187.419179 216.205014 115.632494 
187.651918 216.978269 116.883035 
188.177342 217.260485 118.159055 
187.099818 217.780391 115.165225 
195.486115 225.413500 163.917385 
197.465092 226.183302 173.304041 
197.376378 227.326213 174.187280 
197.494894 226.241655 175.940470 
186.543675 222.230298 109.525241 
200.780604 232.243638 198.899148 
187.953574 226.519139 127.905037 
199.349650 233.033986 192.855753 
200.466727 232.554801 197.472047 
201.229383 233.017991 200.174219 
201.497046 233.544272 201.402450 
183.278992 227.167884 106.787709 
186.983386 229.128615 128.008589 
197.683557 235.642381 175.268631 
186.754824 230.687997 128.431700 
200.143553 237.967932 200.322855 
186.406812 232.028388 128.263061 
190.125942 234.649336 146.617500 
192.978989 237.544365 161.690495 
194.829472 238.073305 173.792870 
201.013696 238.410444 193.996331 
200.290989 239.773215 204.142671 
194.433850 238.043096 162.960533 
194.936103 238.313420 175.505002 
199.248151 240.210051 198.912261 
192.621445 238.485298 160.265074 
193.435411 238.731157 164.390976 
194.818165 239.780720 177.351796 
199.021886 241.805939 200.235096 
183.973055 237.406064 121.895598 
192.536552 239.924306 155.341587 
193.051709 240.111671 158.213829 
192.209545 239.799465 159.913557 
198.918543 243.193158 200.296913 
198.844905 243.334475 201.519407 
199.034550 243.362110 202.777593 
199.379868 243.456369 204.282793 
185.313203 238.757638 125.790644 
185.043396 238.300742 126.258288 
188.665621 241.052124 148.135584 
190.180101 241.399756 150.126417 
194.125355 244.786202 181.003549 
189.086024 243.088287 149.300860 
194.919945 250.275138 181.245875 
215.641667 138.396329 157.222659 
214.719622 142.149057 157.795307 
219.994174 148.000350 189.124643 
218.265600 154.384963 185.389870 
218.160219 154.160093 187.041122 
218.990198 154.453405 188.493983 
220.310998 155.490528 195.760250 
220.399891 154.373588 199.595432 
221.180275 155.302869 203.321053 
211.636741 152.184066 148.833220 
212.199785 152.218935 150.191639 
212.614467 152.493866 151.373315 
217.062655 154.357727 180.955746 
218.530620 155.406856 182.201937 
217.790869 154.558558 184.056121 
219.535083 155.818165 197.386417 
211.323959 153.707783 146.925915 
217.813277 155.925799 185.491307 
217.971542 156.081154 188.663821 
219.124868 156.729532 196.263357 
211.313749 154.283567 150.192455 
218.587061 157.944864 190.569862 
212.092513 157.757056 159.843784 
210.893541 158.120583 156.537589 
212.072504 158.710260 162.419627 
214.631070 160.159155 179.329681 
218.436132 163.204680 199.648376 
212.321752 161.843472 168.207862 
213.069452 161.808667 171.779817 
213.689201 162.524093 177.292422 
204.281517 167.945822 135.883518 
209.388899 174.268416 168.330033 
204.337177 174.607233 138.452968 
210.167294 175.757805 168.970840 
204.249838 175.482015 136.154044 
204.368914 175.095556 139.840368 
203.489257 176.307127 140.313214 
214.637530 183.080546 202.446196 
210.624344 181.477047 176.646459 
209.301262 182.562086 177.045039 
208.208758 185.133655 172.463926 
209.102712 185.880391 171.965046 
200.675267 187.766942 139.212599 
201.959505 187.809339 141.236252 
206.533790 189.632861 170.832979 
201.793324 189.209964 146.757160 
210.781495 193.430459 197.596952 
202.138236 192.260635 148.390445 
203.284933 195.584356 160.565995 
205.079981 198.630252 167.508794 
206.132521 198.850111 179.400471 
201.417964 197.928141 147.551876 
203.389078 198.966567 165.023412 
204.226156 198.810483 169.632585 
196.984181 197.779904 132.424527 
198.069420 197.408935 137.659423 
198.733133 198.538677 142.008612 
204.818224 200.479109 174.154241 
199.140185 199.317934 138.074885 
198.953146 199.326938 140.399405 
200.869419 199.774398 146.291943 
193.495800 198.451863 119.072021 
196.557383 199.482000 132.983110 
198.506260 200.476765 140.705608 
208.042782 206.170906 195.514292 
200.102054 202.836966 145.713863 
202.282382 204.331360 162.196040 
203.644915 205.620662 174.395090 
200.480558 205.650320 149.601935 
206.330425 209.146245 188.891099 
208.395699 208.692764 196.859273 
207.754564 209.489769 198.296682 
199.977904 205.599186 147.473319 
207.100856 210.431222 184.842699 
206.818171 209.797240 190.357289 
191.294159 204.109214 112.121433 
198.006481 207.429182 147.551268 
205.693833 211.126659 179.265177 
206.565149 211.043586 183.979717 
206.730513 211.075889 186.917308 
192.051810 208.380190 118.689856 
204.051851 211.015268 171.428882 
192.035890 209.231772 120.370835 
190.917341 209.179372 114.094019 
190.898436 208.780776 115.540306 
191.330054 208.695983 117.109569 
205.465756 216.001663 194.899017 
205.718696 216.196355 196.151535 
206.360933 216.367077 197.378667 
191.182927 210.321653 115.261416 
199.307091 215.094529 156.407552 
200.958223 215.783177 162.187575 
201.875918 218.285881 170.718127 
202.456704 218.622401 178.300642 
192.272893 214.850567 128.218699 
201.292426 217.793600 165.068897 
203.453509 219.661022 175.201376 
205.116202 220.658844 188.812890 
191.840227 216.055089 128.333437 
201.915163 221.876173 182.010537 
189.480188 217.504668 118.041100 
191.864062 217.697738 128.161373 
188.611007 217.866950 115.481004 
189.039323 217.877648 116.706121 
192.996273 219.483286 128.070619 
186.562865 221.733140 107.564740 
195.050372 226.311332 145.125654 
195.574846 226.512958 147.824356 
198.345725 228.400365 173.746283 
199.597324 229.341031 175.444519 
200.034195 229.332616 176.720874 
188.722361 224.944075 120.965486 
203.916128 234.144096 199.771357 
186.530349 226.204306 112.039144 
189.556393 226.690805 128.420711 
192.423033 228.627071 145.487269 
196.520411 230.798464 163.187094 
202.087646 234.565015 192.969467 
202.468389 233.169191 198.660552 
184.629057 226.858190 106.310203 
188.880899 227.959579 128.462800 
192.453933 229.829462 147.317017 
201.090568 234.159363 192.342819 
192.245204 232.312166 141.845734 
195.586751 234.839065 167.823023 
197.268229 236.890325 173.187252 
197.775095 236.655165 176.632120 
197.377971 236.926782 178.008101 
201.823009 238.023922 201.359944 
202.148216 238.192681 202.614852 
202.537258 238.468677 203.774591 
194.189945 237.722627 164.467440 
194.905868 238.098426 168.968875 
195.963862 238.138496 173.087417 
200.555099 242.521826 185.013983 
187.554012 236.381727 124.419306 
189.821754 237.724913 140.123543 
193.351824 239.148378 156.381777 
192.492053 240.806940 151.758897 
191.900239 239.854268 153.851844 
192.078457 241.822810 153.534426 
192.300030 241.265641 154.988009 
192.074362 241.218660 156.653029 
194.723182 242.862714 164.465468 
202.488135 245.828773 196.960905 
195.307038 245.137916 179.366436 
190.031677 243.629029 147.793701 
191.647617 244.290858 148.315601 
195.037383 248.102394 178.111860 
195.115547 248.118121 179.394694 
195.248817 248.327721 180.712718 
194.957126 249.407108 179.441029 
217.051233 138.159348 156.917373 
219.852884 141.911411 176.629939 
216.166517 142.154462 157.400441 
215.469458 143.971183 149.662006 
214.540916 145.949576 148.950680 
213.615282 147.169923 148.881892 
215.017456 147.546446 156.572238 
214.011410 148.794953 148.414400 
213.982856 150.241802 147.819872 
213.689344 150.429254 149.725748 
219.214733 153.825606 185.394041 
219.490708 153.767248 186.830169 
212.839021 151.410242 147.184426 
217.607603 154.621617 170.554351 
218.166324 155.128310 175.904572 
218.352344 155.199046 177.366682 
218.562506 155.308958 178.964683 
219.035633 155.329314 180.567612 
219.368473 156.584550 183.981743 
219.477107 155.405717 189.708795 
211.587705 154.381018 148.441383 
218.129314 157.189919 173.515913 
213.200585 157.972146 160.662720 
214.235739 158.170031 161.484398 
220.321393 162.873505 199.789242 
222.408172 163.811405 201.768262 
221.111008 164.045081 202.537139 
220.697224 168.490471 197.142993 
219.285154 171.288753 203.878954 
216.859700 170.896883 193.012911 
218.623635 171.568317 200.075515 
218.926213 172.947774 200.885359 
211.271336 170.962122 164.562520 
218.410689 174.416070 199.417584 
216.772743 177.613107 199.211504 
204.854999 174.001728 131.181657 
210.599794 175.987842 165.694931 
205.093451 176.666712 140.206792 
211.406773 180.542068 169.054910 
216.718051 183.198866 201.302742 
204.365783 177.873547 139.889525 
203.975780 179.379618 139.735684 
210.429398 182.461066 168.795036 
209.975594 183.858163 168.617079 
209.946412 184.728374 170.029236 
214.079256 187.255462 198.257349 
205.384862 183.750517 145.500371 
202.951374 185.168784 133.731783 
202.277839 188.590731 138.403888 
207.670109 191.319340 169.773606 
203.191596 193.967051 151.197526 
204.956688 196.781708 160.428668 
203.581803 196.029019 151.043831 
206.272208 197.459680 172.811486 
202.326312 197.503128 149.462280 
203.388259 197.558243 151.165201 
204.664004 199.358760 164.785563 
210.640280 201.600625 193.915507 
211.231053 202.229650 195.043214 
201.339000 199.385494 142.595983 
200.819427 201.363380 145.112359 
197.893620 201.618110 133.951530 
208.513318 206.954882 188.729227 
209.596981 209.294776 198.379693 
202.816174 205.736007 161.624678 
207.603129 208.595838 189.397568 
204.264773 208.338475 161.969720 
204.390822 208.442424 173.554288 
204.172097 209.979414 173.096587 
205.320498 211.181546 177.977938 
206.176022 211.597508 180.652123 
205.904540 211.037601 182.529341 
206.176986 213.196663 181.821648 
206.021559 212.062003 183.545049 
208.421603 216.921236 197.327599 
207.353065 216.601910 196.059813 
202.223300 216.702548 168.080372 
204.389073 217.856576 183.673869 
200.510559 217.054110 160.688879 
201.756494 217.821667 166.600303 
202.106503 218.217989 172.892420 
198.734800 217.246950 154.708073 
202.572766 219.241750 174.509714 
192.095190 216.532481 121.293772 
193.343090 216.594907 128.468838 
202.452206 220.398362 176.999395 
203.520391 221.947435 181.496766 
191.467211 217.015581 115.060968 
191.817210 217.675268 116.762993 
204.463057 223.090970 187.647496 
187.914348 221.385051 105.754111 
188.157910 221.494491 107.055049 
187.929180 221.978957 104.030115 
188.096081 222.168664 108.467901 
188.178623 222.436603 109.689778 
191.146317 223.253330 116.755711 
194.920905 226.670913 143.708192 
195.500723 226.695664 146.434574 
198.806579 228.197819 167.329122 
199.651013 229.554123 174.222428 
192.031901 226.145049 128.376086 
198.325425 228.919866 166.486794 
194.920497 228.846448 147.212502 
185.967309 226.616874 105.794827 
188.954588 227.872338 117.759890 
193.989984 230.053732 146.482197 
204.708860 235.951559 202.000258 
189.224838 229.246957 116.721068 
204.345215 237.150771 201.966020 
188.915864 230.416155 117.068543 
203.897534 238.122977 201.110665 
203.875858 238.715619 202.450200 
204.268721 238.776267 203.481172 
198.540242 237.566465 177.970128 
197.213402 238.462997 170.525619 
191.146283 238.063623 139.981590 
194.666318 241.247333 164.200029 
201.782978 244.113040 195.358777 
187.649272 238.644377 125.295570 
191.783354 240.534793 141.580282 
191.109534 240.731671 142.543355 
201.007455 245.641838 194.746813 
191.117952 242.007183 141.172826 
190.667835 241.954798 142.598814 
190.744518 242.030872 144.237724 
199.934711 246.026333 183.944215 
190.989960 243.406400 141.367716 
191.844139 243.369289 145.886145 
219.174010 138.594373 159.550016 
218.870268 138.976423 158.241084 
223.085697 142.807422 184.379001 
216.362957 144.695135 151.362391 
218.244484 147.754255 157.087455 
215.039696 147.565571 149.331957 
215.917958 147.743021 150.978639 
217.150070 148.561250 154.657136 
217.365815 148.844925 160.730151 
218.428567 148.946020 161.982478 
217.418537 151.736650 158.466481 
217.867984 151.167066 160.324505 
219.035499 153.123257 163.348812 
218.990110 153.217761 164.759317 
219.237373 152.849238 166.430622 
219.203468 153.795630 172.664622 
219.404294 153.900835 174.002388 
220.242882 154.025234 182.010535 
221.783953 156.060962 194.547585 
217.630628 154.950599 168.320481 
218.066172 155.587606 172.687863 
218.283125 155.768999 174.178955 
217.585496 156.569009 171.467120 
221.815827 163.227408 199.993450 
221.777136 162.587614 198.761273 
220.182882 167.530613 190.228875 
219.722252 168.031711 188.832558 
220.549161 167.882793 191.520496 
220.591992 171.582998 203.923044 
213.255107 170.175972 160.556928 
213.584551 171.272231 162.531579 
213.389047 171.221435 163.931067 
213.627952 172.023848 165.305389 
218.583633 176.087774 199.178676 
206.785843 171.484505 128.328516 
212.149712 175.586794 165.616972 
212.327004 175.736818 166.807873 
205.929082 173.289672 133.485422 
206.753425 173.722072 134.947851 
206.318864 173.709403 136.269278 
218.098320 181.174076 203.555645 
212.973769 180.404901 171.187252 
206.053706 178.192647 140.397329 
218.000914 185.496275 203.257349 
218.222859 186.015540 204.647762 
211.461467 185.535765 172.013053 
205.167536 183.817142 129.512386 
211.389383 186.186024 173.722001 
204.656181 183.849874 127.980979 
203.973700 184.544848 137.744926 
205.190418 185.069611 142.227345 
203.789868 185.585444 135.874052 
204.789374 186.243036 142.037984 
204.169845 187.682542 142.037624 
203.714138 188.914496 142.152008 
209.091273 191.706085 169.513488 
209.136299 191.761059 170.938645 
201.863629 191.585367 128.657347 
209.606315 193.634979 168.748913 
202.144194 191.637919 130.841932 
202.409833 192.402370 132.529300 
204.343897 193.290060 150.924142 
208.817329 194.664527 168.890188 
214.104203 197.964202 199.302334 
204.441902 194.555228 151.067514 
207.068418 197.895379 162.198957 
213.044251 200.937035 193.451861 
205.954148 199.858734 157.805862 
211.561724 202.166321 193.620298 
211.962994 202.361381 196.215645 
205.880450 200.239195 163.604522 
201.411219 199.576442 141.797257 
201.940702 200.169328 144.224962 
199.064064 202.150205 132.521305 
206.169865 207.103106 169.124064 
204.019793 209.161628 155.799420 
205.110758 209.476049 163.647614 
204.668476 208.676395 167.294648 
205.553465 208.664484 168.845356 
204.567022 210.129445 159.782772 
204.512406 210.134585 165.201287 
205.523368 210.068255 169.099441 
206.587235 210.799711 174.444267 
206.201053 212.741424 175.012983 
208.459917 217.463660 194.169631 
207.010532 218.232562 189.580340 
208.030713 218.204145 192.508483 
201.770489 216.555491 158.120861 
204.256885 218.477550 177.283106 
207.217934 219.280435 190.552767 
199.683927 217.349666 149.901397 
200.512831 218.000519 150.949666 
200.084024 217.635139 152.897958 
201.084542 218.074476 159.641432 
202.533181 218.775873 168.190518 
204.778270 220.459654 179.918290 
205.546029 220.315026 183.231308 
192.564752 217.544002 117.407677 
198.317726 220.130916 148.190339 
191.703277 218.498107 109.071929 
192.922905 218.887083 118.611927 
191.118196 219.798151 108.349227 
191.462061 219.834790 110.196953 
193.045314 220.415748 117.318485 
193.894749 221.580579 129.738668 
189.172146 221.601602 105.584709 
189.962048 221.560733 106.817631 
190.572010 221.259968 108.134252 
190.889818 221.237671 109.431727 
192.387011 221.904087 116.886818 
200.371890 227.135223 164.895159 
203.171359 227.698235 175.193740 
190.281997 222.508787 108.586225 
193.379228 224.303792 125.013022 
193.270744 224.723888 126.548880 
193.832758 224.557139 127.683206 
201.854224 228.653832 175.819682 
189.447893 223.650400 108.105682 
201.294241 229.899393 174.515486 
190.333871 226.958182 118.704214 
195.804785 229.071397 141.499794 
195.945619 231.148308 140.384877 
195.156537 230.688118 146.336735 
203.707542 234.975211 191.805935 
191.409635 229.260170 118.779086 
194.242807 231.666666 140.679125 
194.349839 231.710806 142.568620 
195.400220 231.901973 146.113036 
203.738538 236.413167 193.172758 
204.992708 236.691178 199.678372 
190.420590 230.943383 118.363537 
195.058761 234.361344 138.609046 
193.813367 232.854701 139.876968 
193.713478 232.707051 141.104542 
203.515192 238.341085 194.516321 
198.569185 237.774625 170.313941 
203.920884 240.648847 195.206833 
193.533716 236.203411 137.652371 
203.947114 241.602042 196.971726 
189.109915 236.887825 123.821174 
192.434534 237.322463 138.288475 
192.722717 238.484859 139.797996 
193.179073 238.657471 140.936580 
193.458855 238.913090 142.168297 
203.541521 242.800036 196.026444 
200.097076 244.791113 183.925864 
192.454124 245.792237 149.735253 
220.205032 138.911562 158.129593 
223.192080 142.348792 173.147095 
217.691001 143.612611 149.918228 
217.568656 145.026871 150.647704 
217.498549 146.713290 151.235146 
216.342277 148.279685 149.438953 
217.116113 148.027216 151.134489 
217.715113 148.901398 152.437036 
215.701226 149.076580 148.527165 
217.402642 149.331238 151.051775 
217.717793 150.016663 157.469476 
219.252292 150.705687 161.684316 
219.111908 151.315994 165.068551 
218.951088 152.074680 161.724947 
218.780710 153.920253 167.525925 
220.106221 156.240142 176.981709 
222.893042 164.240190 199.959981 
221.490009 165.989799 185.215894 
224.850788 166.905128 201.333882 
224.899095 166.846007 203.332569 
221.293354 166.247738 182.305122 
220.683635 168.557940 193.029928 
220.361080 169.517836 191.842368 
223.029498 173.005907 208.087751 
206.954916 170.440271 127.452001 
213.579548 172.980173 162.592554 
214.388081 173.445239 163.728146 
214.419022 174.717003 165.650484 
214.321179 173.841709 166.467358 
206.476164 171.682448 126.167909 
206.443190 172.801155 127.168727 
206.589110 172.938854 128.616675 
213.206208 176.226220 165.603543 
206.139911 173.898124 125.430962 
206.284555 174.914812 130.388274 
206.566627 175.566243 131.580814 
207.491251 175.961707 133.062978 
207.099579 175.285977 134.546258 
218.350506 184.534502 200.902527 
219.230247 187.008266 200.793279 
219.035460 187.644729 202.480100 
205.505004 182.850131 131.551377 
216.605913 189.439252 195.985846 
205.180169 184.736085 131.085903 
205.372712 184.399488 132.351826 
204.817966 185.934452 132.641082 
204.690763 185.754027 134.066598 
206.126439 186.348674 141.049594 
201.649589 189.482585 121.449013 
202.367872 189.433312 124.973601 
217.886086 196.781447 203.683395 
201.306837 190.298398 120.421467 
214.991555 197.595747 198.149538 
215.403604 198.026015 199.342804 
205.838074 195.490783 144.900841 
214.078865 201.321139 194.610633 
214.030445 201.670148 195.896001 
207.053296 200.939412 163.721335 
207.142930 202.180418 163.853157 
207.457596 201.330082 148.075100 
215.233495 208.603300 203.390421 
211.296885 208.061301 189.824459 
215.214242 210.599650 200.760549 
204.318012 211.948255 149.893407 
210.622808 216.106176 194.111721 
210.381369 216.641075 196.009500 
210.003429 217.140558 194.075414 
201.283563 217.836537 152.534434 
206.777225 220.487430 183.255678 
200.463978 219.190469 149.434236 
205.559611 221.706344 179.772487 
193.812510 217.923128 117.538468 
194.364318 218.653282 118.797706 
194.700152 218.558598 120.000573 
200.041681 220.558000 148.585546 
192.253689 218.721695 110.772500 
193.552164 219.110077 117.550705 
205.846533 225.652691 184.334922 
191.447119 219.897427 106.935025 
194.959592 223.439200 127.857668 
190.266136 222.263932 105.458144 
190.558111 222.537011 106.651293 
203.475166 229.762142 173.884704 
190.499345 223.944167 107.259488 
192.000811 228.207951 112.973238 
201.679745 231.826406 163.989084 
201.683308 232.116983 165.299940 
206.593979 235.923421 191.445169 
196.590230 232.973394 146.476071 
203.443307 236.403170 176.923393 
202.464488 241.054431 183.253726 
194.958455 236.453805 139.250129 
205.403261 241.327621 193.011480 
204.229585 241.944768 194.390826 
193.614707 237.417057 138.023146 
193.769606 237.748521 139.434118 
202.103575 242.045595 184.753362 
193.443680 240.874395 141.444982 
193.115565 242.518151 140.694249 
201.238067 246.417497 184.155569 
201.833121 246.554977 185.855928 
192.943705 243.935573 141.241612 
224.449029 142.113821 174.172379 
224.321921 142.780456 171.427355 
219.287808 143.851093 150.499238 
218.869213 145.415518 150.444267 
218.823923 147.518795 149.803170 
218.291736 148.218089 150.902924 
220.338330 149.538707 162.314928 
219.350950 153.600667 161.758048 
222.043694 155.300876 175.194879 
222.837453 155.750059 176.434718 
226.375323 159.646264 190.014951 
226.513160 159.744248 191.363926 
215.697472 156.696884 147.546356 
224.479438 162.382962 196.204316 
220.261400 161.883267 164.348902 
224.295862 163.014013 197.475070 
217.570111 161.603428 156.778107 
219.706577 162.810183 161.392827 
220.172832 164.191038 168.667757 
221.966260 163.954708 179.523336 
216.795711 162.584785 157.795106 
219.864780 163.947673 167.005162 
220.384523 164.917359 171.285390 
219.979029 165.328426 172.964423 
220.707090 165.032796 174.526368 
221.623467 165.476488 176.108686 
220.723270 164.425754 179.227055 
214.765168 163.285251 148.800174 
219.991335 166.041335 177.489278 
220.187274 167.333268 176.802557 
221.142013 168.226851 188.260707 
218.926678 168.972475 165.113569 
224.606992 172.852850 207.771416 
224.596020 173.546126 203.963264 
224.223640 173.206972 206.297957 
223.441939 175.917169 204.921082 
224.310790 176.949214 206.644383 
208.548618 171.988646 129.811042 
207.372500 173.676402 125.008729 
207.719377 173.335703 126.722446 
210.808415 177.122279 139.990969 
206.220214 182.172098 124.928454 
207.239552 182.177658 126.163935 
206.421872 181.704930 127.682123 
205.920554 182.786104 127.901568 
218.370014 189.160552 196.461599 
217.871504 190.857006 195.974123 
218.883560 191.294987 197.731341 
218.715333 192.874747 199.324755 
219.213071 192.544978 200.530928 
203.830841 189.070823 124.697716 
211.355938 193.199908 163.826731 
216.832103 196.552160 196.069611 
216.999518 196.743609 197.544347 
216.978325 197.469756 199.295111 
217.326336 197.939478 200.658805 
218.169642 197.746793 201.999123 
206.090228 194.708963 142.847386 
208.994871 197.861854 161.768641 
215.558888 201.989336 196.381007 
208.001668 201.296506 152.804315 
207.915331 201.355167 151.252682 
208.107729 202.661705 162.593029 
201.865639 202.538788 130.122848 
212.511321 209.265708 190.367723 
205.545912 207.787153 151.688427 
204.367350 209.475882 145.010996 
205.043211 209.312888 149.463586 
204.787076 209.025171 151.151438 
204.997654 209.140132 152.598797 
203.024161 210.329506 144.671083 
205.039650 209.669413 146.200893 
205.254133 210.273369 147.843142 
204.731099 210.605716 149.305017 
204.356637 210.526717 150.912533 
212.483618 215.473266 192.459621 
211.587685 216.739640 195.048832 
212.154605 216.463019 196.457898 
196.055487 218.410834 119.253883 
201.751328 218.968702 144.136123 
201.445671 220.766780 148.283836 
193.826388 218.098859 107.974794 
203.622241 218.694211 141.205405 
202.669747 225.354675 151.986766 
204.592318 230.162944 174.627573 
205.719929 230.489890 175.911377 
206.778563 230.066305 177.270319 
202.102389 229.797829 162.648885 
202.558050 230.268454 163.824277 
203.003119 230.568170 165.049107 
193.615681 227.928113 118.485270 
201.855569 231.340032 162.621602 
204.531054 232.200232 176.051707 
208.093539 234.272154 187.693496 
207.669822 234.300231 189.394047 
192.744942 228.437425 114.798993 
203.933382 234.387554 175.835033 
207.988406 235.639084 187.351177 
207.053549 235.891375 189.532174 
197.608221 232.998241 145.805956 
203.780443 235.996705 174.537731 
193.827622 234.831405 123.966376 
203.755079 241.049372 184.468979 
203.162138 241.798093 181.777385 
205.142632 245.670654 196.944451 
194.579000 243.604566 141.065936 
202.727191 247.690940 184.523556 
204.049555 248.988156 185.344662 
203.457109 248.458191 186.954406 
225.629271 142.757567 170.350163 
227.767190 146.009247 187.582710 
218.371926 154.799373 149.207755 
218.536049 155.381373 150.416152 
227.566610 160.395583 193.305087 
226.623671 159.669049 188.438863 
218.560529 158.219847 153.532795 
219.364819 158.438201 154.735952 
226.255209 161.474091 191.230413 
225.895551 162.513647 195.971946 
217.604294 159.680491 145.011259 
218.401249 160.319917 151.555053 
218.691185 159.795719 153.118617 
218.976181 159.797691 154.671013 
219.197044 160.004260 156.152914 
220.239445 161.634057 158.249346 
226.551411 163.067469 189.177249 
218.146187 160.936984 154.856608 
219.091508 161.728370 159.208959 
221.728190 165.001394 177.389283 
222.279990 165.042150 180.430722 
219.430420 165.261000 165.593001 
225.659047 168.005515 199.231383 
215.572734 166.175976 143.638352 
219.028963 166.612096 166.487817 
225.364974 173.419210 205.892054 
210.104049 170.251089 125.163777 
224.743727 176.046186 204.726204 
209.316854 171.967519 123.840267 
217.324718 175.300393 160.784978 
208.675134 173.880718 124.876128 
209.109748 174.327782 126.428173 
209.578004 173.956535 128.000937 
215.493620 180.446532 164.386682 
222.846043 183.587542 197.181573 
222.515555 184.854231 197.082908 
208.046694 182.379756 127.378304 
210.185385 182.416703 138.293176 
220.757374 188.317739 199.364289 
220.237894 189.409091 197.846432 
220.702807 189.540495 199.256805 
206.670825 183.928574 127.753769 
220.129387 191.071867 199.164928 
219.283652 192.244164 195.929164 
205.259485 189.125237 123.941265 
213.061724 193.316004 163.823271 
218.325332 197.281165 195.724691 
206.850095 190.854363 132.426126 
217.038972 202.116391 196.058618 
215.896505 204.610065 189.001767 
209.891796 204.405713 162.901991 
206.275245 203.995705 143.078077 
214.814915 209.107461 193.974733 
216.410969 210.180104 202.497018 
211.448173 208.544916 165.834108 
212.767371 208.010294 167.882401 
213.807422 210.022338 188.794561 
213.698511 210.479039 176.997622 
214.924372 211.392748 181.476992 
213.784407 211.022932 187.572721 
215.751546 211.596288 193.812792 
205.514740 210.880361 139.371303 
204.487309 211.615740 138.930250 
204.471904 211.467678 144.538525 
203.823213 213.034077 139.112585 
203.695250 214.638153 139.979649 
202.735382 215.597115 139.866852 
208.214677 218.837070 170.059315 
204.345729 218.521950 146.809888 
203.367269 220.553514 147.946641 
195.417307 217.879603 108.508493 
197.136772 218.621200 117.194006 
197.129725 219.227013 118.374449 
197.817365 219.615554 119.605721 
198.796960 219.650032 121.077571 
205.576664 222.609949 162.636752 
195.180211 220.535457 105.966687 
196.129634 220.263109 108.293381 
196.781889 220.076945 115.342597 
197.216877 220.397039 116.612317 
194.882363 221.622348 104.060395 
198.248692 223.116627 123.642860 
198.058924 223.098376 125.321086 
204.793319 229.400367 165.251341 
206.040852 230.488727 174.606993 
204.332907 230.892522 164.610440 
206.036365 233.917309 168.130406 
207.587343 236.784906 186.410930 
207.605442 236.791254 187.793464 
207.622281 236.863933 189.212948 
195.300662 231.773099 115.558783 
195.317583 233.802285 123.898475 
205.105208 244.546058 169.785152 
203.911938 247.046109 173.182342 
204.706782 246.482116 175.012153 
204.526500 247.045020 176.136500 
203.855894 247.095844 179.557702 
203.995381 249.062251 184.161396 
204.422134 250.756299 183.148956 
203.493062 252.057118 175.956311 
197.554983 252.271561 153.032658 
229.092896 146.422964 179.332378 
229.463973 150.369836 187.518984 
222.459889 151.919667 147.119218 
228.455922 155.865269 191.462924 
228.034443 157.699653 191.316064 
219.699474 155.695724 149.971187 
220.444383 157.130030 154.534491 
227.036442 161.360377 184.694128 
226.576278 160.053290 186.581368 
227.763617 161.507151 195.247493 
227.362943 161.965167 183.171196 
226.844921 161.598926 186.245726 
227.265657 161.774590 189.399794 
218.862595 160.306451 150.074927 
221.262482 162.908386 166.485520 
220.880664 163.859010 165.018730 
226.904461 170.764745 190.320843 
226.700798 168.654900 199.974231 
226.808678 171.162569 188.701706 
227.618960 171.441380 191.630707 
227.497914 172.660681 196.991697 
223.074784 170.784222 172.185893 
226.249926 173.989760 204.279944 
226.340326 175.753329 204.592871 
211.453879 169.574889 125.186877 
214.850942 171.954658 139.958655 
224.796627 175.927633 194.178042 
226.459186 176.925489 206.890128 
213.559145 174.729463 137.337137 
213.499992 173.865133 138.441972 
225.495476 181.224384 199.183791 
226.995294 182.366605 200.893286 
213.642644 174.688437 135.595097 
224.160618 180.954372 197.987898 
218.144833 179.571358 163.970756 
223.434997 182.286816 197.243080 
212.486796 178.595355 139.988163 
217.660063 180.868300 163.244213 
208.598084 180.195745 121.412150 
213.198177 180.392540 139.719397 
216.767218 182.074434 163.335105 
208.202633 179.572829 120.049934 
208.844546 180.034376 122.548795 
211.849094 183.658139 137.981719 
208.756807 183.609926 123.071433 
206.667746 189.652400 122.558684 
207.192395 189.449303 124.118774 
208.235109 191.034225 132.612470 
213.672556 193.436135 162.307381 
206.733426 189.765169 119.215025 
207.974021 192.410578 131.309654 
213.508622 195.176197 163.247046 
218.523581 201.336104 188.784217 
219.214775 203.301410 195.912573 
219.542438 205.627599 199.199711 
218.963274 206.727028 198.742626 
208.588396 204.807982 143.331375 
211.255433 204.858900 162.659547 
212.707011 206.718103 173.648978 
218.671347 208.212770 199.397582 
211.293550 206.221756 162.588410 
213.261588 207.880997 176.812467 
213.532646 207.836606 178.137939 
217.538988 210.158183 200.488912 
212.747577 209.483853 171.058247 
215.329398 210.549362 183.779000 
215.487735 211.828467 186.239781 
214.950764 210.994213 187.210076 
215.200947 210.968960 188.439602 
217.706591 211.169660 202.232640 
213.678743 210.870715 179.369244 
215.434539 212.946055 192.176623 
206.208290 211.351485 141.039964 
206.245392 211.835726 142.842280 
210.106316 214.892249 166.781207 
217.227609 218.049314 199.072902 
211.474934 217.396906 176.857177 
215.466711 218.637068 196.116585 
217.128137 218.472067 197.162170 
203.934507 216.214961 139.708779 
213.835257 219.924790 181.056070 
215.976847 223.035818 193.640367 
204.270552 221.803411 148.302905 
206.900236 222.835720 162.211440 
205.610215 224.603075 155.935134 
205.665927 224.658952 157.306166 
196.143687 222.049330 108.473255 
204.516345 226.102902 144.644991 
202.755523 229.531278 147.921464 
207.551802 230.790358 174.169832 
207.776648 230.104143 175.557204 
205.317991 232.060501 164.641761 
199.795078 229.968468 122.917269 
206.355115 233.677939 166.218604 
197.950147 230.821368 116.714379 
205.093158 235.232802 166.186673 
208.640250 237.331853 186.103536 
208.837624 237.410888 187.344303 
208.925555 237.561961 188.569900 
197.529247 233.543191 121.811364 
197.267845 233.727049 123.635093 
201.106795 235.186491 147.805832 
209.910623 239.357186 185.784449 
209.934233 239.362495 186.993536 
209.056199 239.097879 188.473880 
197.280452 235.386385 119.688086 
209.826168 240.416867 188.598091 
200.643243 238.581892 145.976193 
205.762599 247.881758 180.549671 
199.305262 244.475200 147.193387 
205.172250 248.065978 177.498524 
205.478024 248.075577 179.063767 
199.736047 246.078825 147.484157 
199.157589 245.839696 148.494667 
204.802816 248.487828 176.163256 
205.262042 249.251704 182.161313 
204.038030 250.015225 176.225334 
198.746102 250.690221 154.292941 
197.738865 252.399213 151.661855 
229.030742 146.650227 178.025093 
229.895858 156.495884 191.698457 
223.202818 154.124665 146.201406 
221.656446 153.577914 148.041996 
229.513183 157.745445 191.754909 
222.292055 155.955976 145.929253 
227.868442 159.016760 186.565793 
228.141581 160.147360 188.359754 
227.856666 160.855729 179.144581 
228.569663 159.967609 181.286970 
227.025864 161.309009 173.558228 
227.642801 161.878827 187.874190 
219.106020 160.365141 144.811825 
219.848218 162.742757 144.143591 
219.735923 164.473115 143.797462 
230.089925 169.631957 205.813625 
217.796019 166.203887 143.336714 
218.925083 165.851933 145.017072 
226.645945 171.248286 187.169758 
227.679301 171.779685 193.072710 
228.217999 171.269826 194.646416 
227.864209 170.813832 197.948225 
217.719866 168.375929 144.664296 
218.461285 168.756993 145.817980 
226.824383 172.993407 194.894592 
225.943764 174.452548 193.268049 
227.731001 176.268136 204.699123 
218.463081 177.579661 159.444619 
225.189026 181.798608 197.692135 
218.472747 179.534884 162.605068 
218.003449 180.838455 160.807170 
218.458302 182.498088 160.215419 
217.984891 182.276765 162.902814 
209.729201 180.682168 119.912726 
209.820408 180.877134 121.157135 
210.554120 181.105735 122.302893 
218.623369 183.993659 159.675765 
209.979413 181.824310 123.665945 
218.649756 185.409599 158.814696 
212.426469 185.757899 137.859578 
217.096881 189.381797 162.393552 
216.185832 189.843495 160.740572 
223.284891 193.617701 196.025600 
216.377004 191.409012 160.283572 
216.473766 191.355812 161.539769 
216.045548 191.162055 162.956466 
223.333462 195.022171 197.987506 
210.950751 190.962215 132.796298 
209.264977 191.795464 131.562509 
214.956764 194.198173 161.719070 
216.632793 194.715687 168.063739 
209.089589 193.052673 130.939039 
209.589690 194.452291 130.595871 
220.835581 204.116031 197.741530 
207.762811 198.558698 128.511635 
213.792315 201.105632 159.824051 
214.491819 202.059764 161.450911 
218.455756 203.070000 188.776726 
219.493723 204.284949 194.956420 
221.133175 204.074552 198.913817 
210.565018 200.318155 147.758584 
218.123730 204.669668 188.718914 
213.559098 205.778937 168.589228 
