ply
format ascii 1.0
element vertex 1408
property float x 
property float y
property float z
end_header
198.128840 194.436491 175.764021 
192.375602 196.526307 131.072292 
194.256884 195.944796 135.708388 
201.521254 196.945724 197.597419 
189.042801 198.710107 114.303332 
199.864787 200.002427 176.165673 
200.196127 200.469302 190.967356 
203.385055 202.416459 194.283825 
194.789004 203.908684 148.302152 
191.366806 205.153088 118.392519 
189.915504 206.750153 122.270835 
189.728786 205.299088 123.009761 
195.560041 205.645846 150.291776 
194.342823 204.853884 153.982787 
200.557387 206.983638 197.935937 
193.292132 206.858745 147.622555 
193.320705 208.029998 147.335952 
188.318635 213.221113 116.818591 
190.608407 212.814393 130.703671 
193.870385 214.540060 150.863306 
188.189109 214.416888 117.110423 
188.465326 215.082886 118.412765 
188.958443 215.219461 119.725063 
188.125714 216.043807 116.721499 
194.961458 219.871197 166.158238 
196.536412 219.863173 175.652325 
196.567667 220.960300 176.595491 
196.436175 219.782405 178.286425 
188.514804 220.807997 111.329702 
199.347513 224.060482 201.677507 
189.564912 223.902679 129.971565 
198.364407 225.359014 195.632492 
199.157104 224.486594 200.258306 
199.836075 224.694521 203.013971 
200.112274 225.112550 204.281303 
186.145979 226.305017 108.740602 
188.977981 226.617855 130.182958 
198.016485 229.074850 178.169446 
188.955348 228.170348 130.685145 
199.470784 229.736341 203.400803 
188.814036 229.554182 130.579166 
191.906190 230.662731 149.201637 
194.354083 232.336299 164.528843 
195.624984 231.971209 176.711744 
200.725981 230.366996 197.155434 
199.677269 231.303725 207.321574 
195.797195 232.550257 165.888990 
195.675354 232.105665 178.437955 
198.983980 232.154605 202.084125 
194.211459 233.390840 163.145869 
194.835131 233.304161 167.311150 
195.674136 233.478545 180.359602 
198.921758 233.697083 203.485852 
187.520035 235.548156 124.432215 
194.593492 235.075075 158.315125 
194.979132 235.038324 161.213435 
194.012809 234.767471 162.853144 
199.016901 235.079449 203.623292 
198.900518 235.167735 204.847443 
199.025987 235.103162 206.112294 
199.301967 235.068930 207.634273 
188.835538 236.487995 128.454688 
188.478403 236.052610 128.882631 
191.309097 237.125179 151.021814 
192.751520 237.144466 153.094725 
195.521696 238.339303 184.260874 
191.957743 239.015394 152.320627 
197.087465 243.632021 184.855872 
202.651492 131.289243 155.334448 
202.252792 135.102794 156.082065 
206.669020 138.513778 187.901053 
206.079429 145.264784 184.469423 
205.856292 144.974225 186.098561 
206.642683 145.067947 187.601394 
207.717005 145.528644 194.967014 
207.442488 144.217283 198.731194 
208.152723 144.830980 202.535371 
201.126441 145.924727 147.588442 
201.616665 145.807246 148.970258 
202.004246 145.957721 150.183123 
205.119146 145.640339 179.992137 
206.656005 146.397265 181.360972 
205.705304 145.573934 183.128211 
206.912474 145.883818 196.573374 
201.137522 147.572852 145.760623 
205.849866 146.848242 184.639783 
205.862498 146.817135 187.819861 
206.697692 146.901534 195.487901 
201.039521 147.977061 149.051356 
206.640208 148.470626 189.856134 
201.805430 150.802938 158.912774 
200.846460 151.506566 155.583225 
201.788479 151.616518 161.536086 
203.640139 151.811546 178.598583 
206.775663 153.226992 199.208485 
202.184369 154.380583 167.501488 
202.731020 154.054575 171.095096 
203.158002 154.389828 176.661965 
196.815131 163.235072 135.259952 
201.075766 167.079422 168.213023 
197.698296 169.676420 138.210990 
202.026599 168.403504 168.972980 
197.858867 170.670252 135.965007 
197.727549 170.083587 139.624391 
197.008686 171.385812 140.127116 
205.748313 173.277275 202.981805 
202.902703 173.595526 176.979796 
201.731289 174.841801 177.381433 
201.263444 177.775679 172.913032 
202.280833 178.407094 172.498443 
195.942102 183.175959 139.568485 
197.111185 182.925952 141.646219 
200.344104 182.549438 171.472753 
196.860177 184.053296 147.226174 
203.688044 184.314989 198.573968 
197.556338 186.932964 149.047175 
198.531919 189.428429 161.433739 
200.382126 191.820040 168.614203 
200.830937 191.277790 180.533629 
197.707689 192.679979 148.507244 
198.890138 192.527464 166.079858 
199.453236 192.015776 170.704859 
194.097695 193.955115 133.214793 
194.842165 193.162829 138.462416 
195.433422 193.960015 142.894931 
200.042549 193.347049 175.337423 
196.154345 194.869828 139.034924 
195.849052 194.788083 141.345460 
197.498512 194.648500 147.333290 
191.447426 195.811074 119.781951 
193.892712 195.670871 133.851557 
195.557621 195.974092 141.697624 
202.932382 197.408991 197.113455 
197.213190 197.816040 146.900129 
198.720099 198.133434 163.521732 
199.613682 198.586333 175.823440 
197.790117 200.341720 150.957644 
202.017391 200.936754 190.604295 
203.575127 199.779774 198.616639 
202.981501 200.588350 200.067924 
197.397565 200.473399 148.809425 
203.176474 202.298465 186.675358 
202.516615 201.433488 192.125950 
190.453753 202.076790 113.079943 
195.709984 202.567266 148.905661 
202.178889 203.476039 181.090536 
202.780851 203.026075 185.826372 
202.795020 202.884314 188.765341 
191.475570 205.850254 119.911949 
200.950863 204.006032 173.195785 
191.494854 206.608339 121.637078 
190.710865 207.040289 115.324305 
190.558806 206.575815 116.742800 
190.890826 206.348757 118.322128 
201.839069 207.530402 196.955002 
202.051523 207.621820 198.226690 
202.646512 207.633554 199.488957 
191.077230 208.070202 116.566566 
197.639038 209.497481 158.240208 
199.067263 209.640888 164.118026 
199.888859 211.544348 172.811577 
200.114138 211.405826 180.419149 
192.129986 211.724771 129.800088 
199.537112 211.431128 167.122987 
201.411573 212.442619 177.432592 
202.485623 212.491613 191.139434 
191.870543 212.972448 129.965100 
199.854946 214.511022 184.283629 
190.287273 215.274908 119.679421 
192.140522 214.600299 129.889730 
189.614906 215.890839 117.108552 
189.975494 215.776089 118.350039 
193.522094 216.202042 129.952949 
188.564620 220.413741 109.346477 
195.645140 221.777488 147.449315 
196.051138 221.762274 150.175788 
197.703842 221.901100 176.260950 
198.987549 222.559751 178.064733 
199.351143 222.422257 179.356593 
190.460471 222.586448 122.993404 
202.674744 225.431932 202.796731 
188.944301 224.607700 114.066565 
191.146472 223.810133 130.566980 
193.364784 224.433291 147.827482 
196.800011 225.075374 165.787832 
201.285177 226.462609 195.956187 
201.161504 224.738466 201.568119 
187.460251 225.824672 108.306372 
190.660181 225.160712 130.652477 
193.473241 225.523452 149.723388 
200.274153 226.240510 195.263434 
193.912456 228.284727 144.401285 
196.218569 228.968439 170.604053 
197.895502 230.474507 176.147486 
198.181881 229.992495 179.592044 
197.756648 230.249300 180.962458 
201.084036 229.491745 204.512941 
201.364024 229.546788 205.788720 
201.727574 229.703203 206.978631 
195.430927 232.192993 167.362478 
195.956828 232.230007 171.905467 
196.792269 231.904506 176.062320 
201.337632 234.952343 188.414906 
190.778160 233.880973 127.048843 
192.390345 234.075683 142.889702 
195.232433 234.135741 159.343783 
194.864784 236.135619 154.791159 
194.032667 235.175275 156.797045 
194.509911 237.109713 156.602447 
194.572171 236.452835 158.029707 
194.255166 236.355000 159.677543 
196.700827 237.192001 167.682012 
203.099757 237.327128 200.607396 
196.825932 238.596029 182.700978 
193.049267 239.486975 150.890809 
194.714310 239.876366 151.521416 
197.053666 241.627811 181.609541 
197.065968 241.566630 182.893334 
197.158897 241.687057 184.225904 
197.093301 242.860855 183.007197 
204.026045 130.863211 155.078835 
206.303957 133.155073 175.080609 
203.703955 134.915250 155.752812 
203.683163 137.205788 148.109335 
203.088863 139.332873 147.473307 
202.354214 140.678068 147.434311 
203.391249 140.452687 155.188216 
203.004991 142.248738 147.079812 
203.217038 143.712365 146.569434 
202.854261 143.843845 148.468054 
206.936216 144.572344 184.483317 
207.125238 144.401075 185.924486 
202.288966 145.067207 145.952595 
206.240675 146.349559 169.657980 
206.585695 146.495860 175.048094 
206.703128 146.464029 176.518660 
206.842959 146.460434 178.128099 
207.229428 146.329421 179.748938 
207.560869 147.346802 183.241470 
207.197799 145.875225 188.889763 
201.416042 148.122018 147.322767 
206.972229 148.659198 172.783616 
202.888513 150.810687 159.791188 
203.896916 150.812034 160.668104 
208.583269 152.615223 199.413498 
210.677117 153.133946 201.534239 
209.388866 153.516603 202.257007 
209.905090 158.242882 197.116451 
208.561353 160.872439 203.933877 
206.677356 161.394704 192.966422 
208.147361 161.439304 200.127410 
208.603289 162.716233 201.028457 
202.655341 163.727920 164.347577 
208.383003 164.317108 199.626782 
207.237394 167.726700 199.533763 
198.503386 169.371724 130.946987 
202.658827 168.733610 165.738344 
198.651357 171.510314 140.113045 
203.938412 172.942709 169.389069 
207.881108 173.146068 201.940639 
198.123385 172.825656 139.834239 
197.963752 174.378577 139.750755 
203.263624 174.995362 169.197679 
203.026461 176.451256 169.080997 
203.049416 177.243359 170.538512 
206.019529 177.696374 199.021245 
199.685805 178.195726 145.815885 
198.102774 180.553110 134.052817 
197.687054 183.794943 138.880823 
201.766162 184.101955 170.564379 
198.696746 188.320834 151.992412 
200.364049 190.372108 161.440385 
199.388384 190.308033 151.975926 
201.113194 190.218711 173.887862 
198.443728 192.029343 150.428259 
199.411802 191.840921 152.176983 
200.219054 192.739321 165.921978 
204.922215 192.593429 195.369465 
205.537799 193.070505 196.556841 
198.099930 194.383111 143.645508 
197.740568 196.285423 146.246701 
195.471063 197.535027 135.000495 
203.866095 198.459069 190.412810 
204.769484 200.120348 200.221224 
199.480493 199.471429 163.056983 
203.168881 200.179997 191.134033 
201.269932 201.811407 163.616217 
200.802602 201.306635 175.181498 
200.832598 202.880338 174.804361 
201.885363 203.650640 179.793334 
202.650737 203.799670 182.522473 
202.203214 203.191121 184.350187 
202.821547 205.319725 183.781578 
202.413687 204.134172 185.427736 
204.765454 207.880259 199.561634 
203.729885 207.786545 198.231282 
200.141461 210.063289 170.104544 
201.631352 210.091787 185.819470 
198.887125 211.038392 162.677091 
199.919490 211.312703 168.672540 
199.992981 211.332816 174.986374 
197.473675 211.794271 156.644566 
200.516938 212.193250 176.679375 
192.560274 213.764352 122.983198 
193.426467 213.277606 130.198149 
200.434545 213.226935 179.224076 
201.478308 214.371274 183.846634 
192.336113 214.650831 116.767131 
192.688129 215.164435 118.518379 
202.252813 215.049446 190.089068 
189.944585 219.963029 107.580519 
190.132914 219.969153 108.895142 
190.135396 220.635148 105.896194 
190.095240 220.572381 110.340543 
190.151514 220.762789 111.578349 
192.831794 220.773571 118.804527 
195.643443 222.223795 146.050721 
196.077113 222.024310 148.797009 
198.466133 221.959411 169.869637 
199.135422 222.824467 176.860634 
193.516012 222.908956 130.600771 
198.139185 222.786287 169.050028 
195.773884 224.194712 149.671717 
188.774716 225.415533 107.837812 
191.281100 225.607772 119.976339 
195.067181 225.561349 148.971995 
203.602516 226.987368 205.159611 
191.801234 226.978656 119.031935 
203.418310 228.227215 205.178801 
191.646715 228.161404 119.432509 
203.161276 229.296934 204.362182 
203.155335 229.817443 205.731519 
203.498282 229.767119 206.780698 
198.999546 230.712047 181.013259 
198.208066 232.171371 173.581642 
193.755520 234.222533 142.826566 
196.425074 235.618187 167.321159 
202.238940 235.817552 198.878819 
191.153403 236.057459 128.058100 
194.658424 236.488527 144.592463 
193.970614 236.733220 145.534455 
201.725655 237.472953 198.322633 
194.235084 238.061605 144.241861 
193.708040 238.003618 145.641022 
193.708945 237.984163 147.283373 
201.287172 238.559795 187.523501 
194.300633 239.452686 144.511620 
194.902578 239.060615 149.053771 
206.048540 130.846668 157.823917 
205.872201 131.335302 156.527127 
209.221875 133.170423 183.004459 
204.581593 137.702965 149.886804 
206.582958 140.156814 155.857387 
203.795300 140.836364 147.969347 
204.602500 140.798678 149.660915 
205.745512 141.238588 153.431717 
205.681533 141.178327 159.514545 
206.680654 141.058111 160.816577 
206.270163 144.142094 157.426806 
206.534604 143.418856 159.266827 
207.812530 145.025609 162.448250 
207.707444 145.053939 163.858452 
207.810946 144.568558 165.514925 
207.587634 145.191491 171.785622 
207.731193 145.197849 173.134832 
208.158253 144.790214 181.166057 
209.318426 145.936975 193.856040 
206.428005 146.784698 167.450153 
206.721635 147.127816 171.862131 
206.884110 147.199265 173.369389 
206.452470 148.230050 170.680166 
210.100388 152.734476 199.704024 
210.034240 152.170818 198.436345 
209.620357 157.721912 190.142326 
209.310778 158.355676 188.758315 
209.965516 157.950228 191.467171 
209.892874 160.968513 204.052925 
204.711756 162.863010 160.395205 
205.092276 163.797028 162.442735 
204.818438 163.704484 163.826865 
205.098476 164.392084 165.254621 
208.808020 165.955113 199.493051 
200.196934 166.746062 128.041342 
204.136441 168.113299 165.706176 
204.270918 168.174859 166.910465 
199.341094 168.393157 133.251041 
200.141518 168.624613 134.771225 
199.641064 168.608884 136.069097 
208.834297 170.828300 204.131500 
205.355244 172.468187 171.577353 
199.810760 172.866619 140.434126 
209.378367 175.127279 204.080108 
209.599881 175.536863 205.506754 
204.559224 177.717069 172.631090 
200.318288 179.106272 129.864766 
204.492449 178.283131 174.369954 
199.897971 179.291716 128.316635 
198.812524 179.582311 138.064495 
199.855793 179.693732 142.619387 
198.879289 180.732376 136.250744 
199.639032 180.921496 142.480713 
199.234940 182.434644 142.536252 
198.956713 183.712829 142.701478 
203.239956 184.288038 170.390466 
203.217729 184.263267 171.817005 
198.221197 187.309480 129.315406 
204.067715 186.156467 169.762564 
198.391574 187.209044 131.509665 
198.676142 187.839297 133.248620 
199.751826 187.496402 151.731697 
203.429507 187.282398 169.928082 
207.537175 188.217700 200.685029 
200.024010 188.724425 151.952344 
202.518891 191.071396 163.364245 
207.225990 191.607686 194.975349 
201.931782 193.398125 159.047154 
205.929931 193.031614 195.148734 
206.218656 193.033301 197.766278 
201.610163 193.490017 164.849116 
198.240733 194.601704 142.863184 
198.722426 194.986016 145.342274 
196.779426 197.961071 133.656887 
202.599019 199.947023 170.764486 
201.470091 202.974243 157.499196 
202.182371 202.725297 165.393111 
201.438708 201.815096 168.964443 
202.230215 201.594247 170.549620 
201.942010 203.647221 161.552296 
201.604915 203.384886 166.954226 
202.390053 202.972409 170.883027 
203.266980 203.266659 176.303214 
203.136231 205.212615 176.965770 
205.047153 208.570963 196.445221 
203.966556 209.777104 191.848369 
204.817099 209.450031 194.812352 
200.194547 210.490963 160.142978 
201.925291 211.049516 179.475868 
204.271998 210.732236 192.888126 
198.678182 212.000388 151.898809 
199.536382 212.468015 153.018798 
198.957795 212.071162 154.921682 
199.656633 212.015080 161.717046 
200.741547 212.060118 170.348287 
202.588898 212.796746 182.242018 
203.153062 212.372466 185.571908 
193.374038 214.891974 119.186930 
197.819838 215.035773 150.292802 
193.097404 216.384981 110.890452 
193.858961 216.104742 120.481690 
192.745036 217.792019 110.219025 
192.993308 217.683672 112.079212 
194.268616 217.662497 119.285707 
194.625626 218.056720 131.777962 
191.227603 220.000427 107.479967 
191.937617 219.781122 108.742305 
192.427882 219.327322 110.065071 
192.670717 219.192564 111.371903 
193.855864 219.251514 118.912198 
199.986771 220.803123 167.450103 
202.294801 220.423713 177.878135 
192.298130 220.580616 110.575319 
194.757393 221.062819 127.199820 
194.630453 221.415683 128.751104 
195.102259 221.110586 129.897698 
201.098644 221.529691 178.499291 
191.664116 221.855497 110.125167 
200.793666 222.908777 177.245878 
192.462391 224.453757 120.926420 
196.979455 224.577172 144.026548 
197.477201 226.664698 143.041198 
196.319176 226.023697 148.915476 
203.006059 226.688532 194.891454 
193.854151 226.565529 121.182239 
195.854135 227.412397 143.289086 
195.867285 227.344192 145.180850 
196.747121 227.198252 148.773527 
203.172909 228.034904 196.339324 
204.111529 227.794222 202.899378 
193.141910 228.394903 120.821410 
197.158302 230.059346 141.416895 
195.643531 228.689923 142.538837 
195.459178 228.496372 143.750146 
203.160473 229.903878 197.781091 
199.459331 231.302610 173.390844 
203.858709 232.088679 198.621490 
195.967741 232.152034 140.501787 
203.929932 232.936669 200.438068 
192.420050 234.182306 126.550717 
195.010037 233.386878 141.152227 
195.383714 234.415944 142.737867 
195.799944 234.461404 143.903678 
196.048816 234.610113 145.159343 
203.751831 234.227799 199.546712 
201.270041 237.316677 187.440838 
195.653851 241.168561 153.060084 
207.187564 131.080448 156.471442 
209.849135 133.272704 171.780669 
205.813049 136.511597 148.442740 
205.858346 137.889531 149.246781 
206.002037 139.535835 149.927256 
205.180003 141.344615 148.175273 
205.819322 140.895138 149.886017 
206.469309 141.604282 151.262337 
204.709515 142.272491 147.283626 
206.295250 142.145288 149.891803 
206.369503 142.449725 156.346090 
207.764533 142.690235 160.657744 
207.536730 143.141722 164.062078 
207.662644 144.084796 160.764214 
207.457125 145.638041 166.649084 
208.606795 147.253860 176.272915 
211.312929 153.578061 199.777158 
210.951875 156.262344 185.111483 
213.560591 155.852510 201.388732 
213.495069 155.685396 203.380806 
210.947331 156.694049 182.214690 
210.116894 158.520616 193.017666 
209.999122 159.576647 191.874569 
212.288872 161.803600 208.397199 
200.258994 165.734238 127.114168 
205.330989 165.481775 162.602286 
206.137635 165.764440 163.797696 
206.251307 166.918416 165.789966 
205.985325 166.026672 166.549601 
200.032738 167.097003 125.884218 
200.109412 168.156041 126.945721 
200.197641 168.196978 128.404264 
205.273498 168.590113 165.776744 
200.059323 169.372606 125.262686 
200.089481 170.103600 130.272103 
200.399876 170.644946 131.511731 
201.293016 170.824155 133.053910 
200.730629 170.138910 134.476688 
209.708165 174.245491 201.691366 
210.940706 176.565154 201.764805 
210.751852 177.136774 203.475354 
200.405160 177.997735 131.857271 
208.950777 179.597125 196.994525 
200.381151 179.932157 131.487889 
200.456436 179.506974 132.739482 
200.114980 181.090159 133.092272 
199.888530 180.858190 134.497882 
201.027252 180.879300 141.560451 
198.083422 185.630285 121.994962 
198.601396 185.296723 125.539185 
210.873637 186.270042 205.153797 
197.916487 186.538829 121.002207 
208.421120 187.781742 199.553360 
208.827943 188.085456 200.786669 
201.861867 189.756562 145.918324 
208.243113 191.775923 196.199225 
208.178371 192.062460 197.499236 
202.864149 194.003135 165.058266 
203.125175 195.209110 165.265621 
204.139798 195.124910 149.494362 
209.976548 198.353001 205.428795 
206.719107 199.086630 191.692826 
210.383834 200.461523 202.920756 
202.476929 205.983220 151.783643 
206.991168 206.914646 196.404849 
206.730486 207.382082 198.317838 
206.530554 208.029417 196.401071 
200.191228 212.112035 154.624060 
204.393263 212.360321 185.660871 
199.739487 213.727678 151.574190 
203.548774 213.920644 182.203533 
194.654907 215.076182 119.394743 
195.239715 215.652201 120.717429 
195.494855 215.448096 121.926513 
199.564322 215.183825 150.788250 
193.584496 216.438383 112.623880 
194.568566 216.286349 119.464160 
204.163632 217.544694 186.995192 
193.158485 217.913564 108.828953 
196.044982 219.831566 130.056954 
192.410946 220.500099 107.440692 
192.676411 220.666219 108.659445 
202.961873 222.484276 176.705667 
192.789858 222.033943 109.344940 
194.590385 225.734275 115.357164 
202.004567 225.290655 166.876332 
201.981411 225.510526 168.200686 
206.014129 227.218688 194.714757 
198.058818 228.063004 149.250512 
203.731031 228.894517 180.119624 
203.104458 233.311305 186.659105 
197.328027 232.108457 142.173052 
205.536581 232.652598 196.537145 
204.393791 233.364840 197.896455 
196.203753 233.320108 140.945490 
196.330798 233.553004 142.378780 
202.812524 234.267264 188.196144 
196.355184 236.586497 144.550925 
196.307873 238.296660 143.882866 
202.620497 238.743614 187.814828 
203.139267 238.705400 189.545039 
196.314241 239.694262 144.503265 
211.003469 132.803481 172.845416 
211.118031 133.620235 170.140697 
207.394904 136.482616 149.106920 
207.210272 138.092362 149.124154 
207.503095 140.209240 148.604622 
207.020689 140.922427 149.718330 
208.635960 141.345589 161.267280 
208.276570 145.531635 160.903398 
210.479093 146.131725 174.522458 
211.263383 146.395576 175.820261 
214.610862 149.033202 189.747105 
214.690551 149.041128 191.104279 
205.858557 149.850257 146.746797 
212.808797 151.700919 195.994342 
210.237554 153.447501 164.007671 
212.652035 152.286693 197.290119 
207.934438 153.952042 156.321360 
209.978160 154.595042 161.088554 
210.257322 155.520610 168.444787 
211.426560 154.471362 179.337344 
207.257801 154.983706 157.358121 
210.004860 155.410070 166.758848 
210.434337 156.073847 171.106920 
210.005112 156.454228 172.787285 
210.599961 155.975646 174.360262 
211.486676 156.198615 176.004756 
210.281948 155.134668 179.013954 
205.823871 156.431741 148.337611 
209.883256 156.926609 177.341921 
210.299566 158.208854 176.740589 
210.771825 158.368544 188.262338 
209.903246 160.607811 165.121791 
213.842064 161.436314 208.142884 
214.130929 162.316336 204.384574 
213.591645 161.917441 206.676853 
213.283075 164.779625 205.425974 
214.200478 165.583600 207.243055 
201.933950 166.909243 129.627396 
201.267334 168.993639 124.883463 
201.471067 168.518926 126.588270 
204.375535 171.130165 140.177954 
201.360840 177.559384 125.244489 
202.304139 177.352044 126.522257 
201.348319 176.928252 127.972697 
200.997727 178.058867 128.231941 
210.628703 179.037998 197.531191 
210.406847 180.811911 197.121176 
211.378114 181.006267 198.944021 
211.356733 182.510516 200.617248 
211.737702 182.050197 201.823196 
200.009037 184.737361 125.307993 
205.991526 185.719411 164.905993 
210.197923 186.585724 197.500241 
210.313758 186.675230 198.989569 
210.306047 187.306639 200.776795 
210.646367 187.650087 202.179520 
211.381581 187.267499 203.542543 
202.105605 189.051553 143.836245 
204.440143 190.776619 163.018675 
209.709368 192.128142 198.069309 
204.424790 194.771258 154.233172 
204.429247 194.920787 152.685245 
204.214083 195.606585 164.079582 
199.729512 198.054503 131.411741 
208.064719 200.069988 192.358350 
202.994786 201.600900 153.387296 
202.424131 203.781939 146.773196 
202.835133 203.295112 151.234472 
202.452034 202.962801 152.889777 
202.600898 202.971791 154.349286 
201.238092 204.840122 146.424008 
203.054073 203.813671 148.000983 
203.267260 204.295210 149.683368 
202.721892 204.626169 151.137376 
202.256247 204.521529 152.719399 
208.824934 206.099565 194.803110 
207.987036 207.350734 197.419007 
208.433417 206.922417 198.833459 
196.851840 215.140613 121.233434 
201.257044 213.588472 146.334524 
200.997604 215.198756 150.561782 
195.195050 215.733896 109.867383 
203.219582 213.190950 143.478795 
202.676227 219.362291 154.575014 
204.084755 222.678002 177.519381 
205.178958 222.769735 178.868773 
206.092593 222.126425 180.246552 
202.199207 223.292745 165.440937 
202.655894 223.630814 166.660694 
203.074822 223.799105 167.919384 
195.856843 224.939969 120.909981 
202.179646 224.853852 165.492124 
204.244061 224.627061 179.055039 
207.453751 225.557572 190.944001 
206.950038 225.561222 192.622829 
195.263186 225.758616 117.224386 
203.980980 226.886683 178.939141 
207.565365 226.940704 190.677129 
206.563825 227.216640 192.825416 
199.103406 227.971784 148.628827 
204.130395 228.564665 177.731745 
196.776851 231.449232 126.785860 
204.315309 233.054581 187.928129 
203.978641 234.018265 185.260769 
205.700707 236.781083 200.699690 
197.891459 239.135539 144.381491 
204.256692 239.763648 188.321740 
205.707807 240.808674 189.274535 
204.961474 240.290538 190.822970 
212.462964 133.459967 169.123103 
214.142640 135.481310 186.593009 
208.139931 147.497806 148.412573 
208.322914 147.987123 149.658755 
215.723921 149.430792 193.124777 
214.942121 149.099276 188.187569 
208.594071 150.628937 152.932635 
209.357326 150.665089 154.180947 
214.692676 150.794623 191.059897 
214.239137 151.633399 195.833044 
208.306746 152.645695 144.476006 
208.843821 152.827373 151.074778 
208.972634 152.187412 152.616671 
209.173198 152.068498 154.177695 
209.343656 152.164708 155.677417 
210.499391 153.514632 157.908974 
215.323212 152.429344 189.117686 
208.508011 153.306618 154.391952 
209.328458 153.727968 158.820521 
211.454399 155.648805 177.259059 
211.846193 155.453238 180.319247 
209.839461 156.843095 165.407264 
214.628429 156.927394 199.391489 
207.310059 159.430750 143.392911 
209.591172 158.191309 166.360151 
214.771351 161.979743 206.335009 
203.463227 165.200195 124.960919 
214.598245 164.725377 205.296894 
203.002803 167.078828 123.705438 
209.461679 167.314365 161.100264 
202.590960 169.010482 124.820895 
203.003712 169.309228 126.414000 
203.330349 168.793640 127.981850 
208.207432 172.484144 164.909227 
214.208333 172.837581 198.125086 
214.070018 174.142476 198.085403 
203.067275 177.371149 127.780935 
204.614063 176.538015 138.763791 
212.713801 177.706535 200.483309 
212.437749 178.938191 199.009669 
212.842240 178.927871 200.444537 
201.911943 179.084489 128.184047 
212.501780 180.529631 200.416174 
212.005050 181.976594 197.219414 
201.468192 184.619296 124.620148 
207.693996 185.583208 164.985010 
211.796835 187.103597 197.264785 
202.845291 185.661897 133.253188 
211.207110 192.052196 197.820861 
210.808339 195.042337 190.876596 
206.212818 197.051035 164.567987 
203.618556 198.186062 144.612621 
210.129089 199.391264 196.048854 
211.414726 199.782686 204.681421 
208.195324 200.761628 167.801219 
209.314263 199.935242 169.871648 
209.537184 200.706600 190.890776 
210.113605 201.773456 179.146937 
211.222284 202.267889 183.721728 
209.723071 201.760489 189.729149 
211.422782 201.720113 196.073140 
204.056330 205.287108 141.280874 
203.170504 206.187155 140.837986 
202.840070 205.758070 146.422035 
202.709743 207.676665 141.072527 
202.769714 209.235931 142.024538 
201.965765 210.330205 141.924984 
206.266444 211.189362 172.467918 
203.615959 212.629403 149.090469 
202.883200 214.722410 150.298454 
196.707408 215.256030 110.457595 
198.058591 215.293982 119.239254 
198.077344 215.833436 120.451336 
198.748461 216.053438 121.732369 
199.644285 215.868497 123.245786 
204.593948 215.681811 165.166629 
196.990146 218.043598 108.065927 
197.767027 217.516558 110.412790 
198.015319 216.878319 117.461375 
198.424881 217.065941 118.765568 
196.952796 219.257975 106.214471 
199.469171 219.243096 125.980746 
199.191100 219.167685 127.645011 
204.664363 222.371783 168.132905 
205.564234 222.787662 177.582051 
204.458663 223.946081 167.559727 
206.394637 226.504321 171.321200 
207.383934 228.179377 189.787973 
207.330307 228.112702 191.167990 
207.283084 228.109857 192.588646 
198.230827 228.638827 118.288903 
198.103919 230.216823 126.724670 
206.924039 237.056354 173.546029 
205.928312 239.528841 177.026028 
206.536331 238.761723 178.853571 
206.380646 239.287139 179.999529 
205.546124 239.262127 183.384772 
205.726976 240.949990 188.096313 
206.446538 242.612032 187.203679 
206.093335 244.399363 180.064341 
201.457786 246.650483 156.950605 
215.944608 136.114267 178.447525 
216.452829 139.542216 186.857454 
211.872510 144.157728 146.344271 
216.044401 144.918493 191.064523 
215.900751 146.800001 191.005627 
209.541252 148.149026 149.284851 
210.245541 149.224225 153.952161 
215.790616 150.899586 184.569151 
215.048138 149.580232 186.355190 
215.977481 150.401064 195.135153 
216.280432 151.526362 183.099822 
215.554564 151.084538 186.121928 
215.830448 151.035798 189.296440 
209.375278 152.821412 149.618306 
211.262961 154.204161 166.242437 
211.099920 155.273951 164.817687 
216.724646 159.922635 190.719895 
215.712735 157.377771 200.216238 
216.772324 160.412013 189.123876 
217.459823 160.419269 192.097196 
217.235586 161.368988 197.509156 
213.893382 161.427418 172.464409 
215.812701 162.495038 204.799553 
216.140523 164.207883 205.217842 
204.698068 164.332399 125.004713 
207.624819 165.432237 140.025807 
215.185989 165.136700 194.772354 
216.307032 165.231471 207.582164 
206.886761 168.496588 137.514699 
206.645508 167.595343 138.563880 
216.379828 170.011520 200.102680 
217.937343 170.832163 201.940392 
207.054602 168.532330 135.778637 
215.084465 170.002059 198.835061 
210.722430 171.250581 164.561424 
214.599069 171.462911 198.137214 
206.247015 172.338390 140.335032 
210.468933 172.639986 163.890441 
203.609016 175.435912 121.728637 
207.223769 174.022615 140.202702 
209.756263 173.958197 164.011331 
203.199600 174.948045 120.316405 
203.769677 175.182456 122.863844 
206.453738 177.535276 138.598969 
204.172377 178.700739 123.588363 
203.008335 185.003044 123.334331 
203.415662 184.645899 124.901788 
204.230074 185.626245 133.510954 
208.394345 185.689031 163.507248 
203.264704 185.274745 120.009044 
204.239268 187.090465 132.279769 
208.434623 187.384229 164.537948 
212.942395 191.432716 190.586578 
213.535972 192.909950 197.840480 
214.023735 194.992438 201.268180 
213.634303 196.186934 200.850299 
206.008338 198.635104 145.015018 
207.638446 197.310318 164.412997 
208.765754 198.374552 175.545288 
213.526270 197.664224 201.576632 
207.876811 198.654557 164.422708 
209.316080 199.280823 178.792341 
209.508060 199.129699 180.123740 
212.631370 199.697092 202.727490 
209.341300 201.232297 173.123521 
211.380000 201.258155 185.986713 
211.592406 202.373261 188.522072 
210.890411 201.578889 189.417597 
211.069556 201.454620 190.653489 
212.851818 200.582921 204.532614 
210.026435 202.042703 181.534047 
211.390343 203.183248 194.505467 
204.722307 205.565582 143.003176 
204.734534 205.946834 144.830388 
207.737185 207.180888 169.053982 
213.538386 207.609783 201.758654 
208.923663 208.941350 179.308964 
212.038247 208.599822 198.766091 
213.601299 208.139151 199.873098 
203.248215 210.772062 141.856376 
211.401309 210.877555 183.747927 
213.307800 212.995714 196.574000 
203.937729 215.806005 150.766296 
205.956699 215.731645 164.814303 
205.266260 217.986365 158.599864 
205.257558 217.963664 159.972950 
198.029652 219.269780 110.696304 
204.993644 220.202828 147.378174 
203.577607 223.681985 150.766364 
207.123719 222.885454 177.230623 
207.174031 222.103989 178.584518 
205.599204 224.953236 167.702380 
202.025488 225.820649 125.722759 
206.775159 226.318143 169.414783 
200.650722 227.250007 119.503916 
205.754603 228.041399 169.416994 
208.519480 228.580311 189.559842 
208.660928 228.566258 190.810642 
208.705440 228.640244 192.045627 
200.361186 229.741474 124.726320 
200.033922 229.868854 126.544229 
202.771889 229.516757 150.905503 
210.084191 230.410186 189.415364 
210.044944 230.350493 190.622582 
209.061549 230.143080 192.044657 
200.492984 231.706740 122.704456 
210.006492 231.326341 192.279150 
202.900440 233.031978 149.256897 
207.491783 239.707398 184.504294 
202.366359 238.988451 150.752899 
207.094924 240.131364 181.445748 
207.316449 240.016272 183.020948 
203.008563 240.494331 151.154937 
202.349481 240.291887 152.123210 
206.860805 240.670320 180.122081 
207.110744 241.052378 186.168786 
206.322615 242.288492 180.238535 
202.340169 244.849056 158.168790 
201.729747 246.819200 155.599020 
215.984526 136.414362 177.154136 
217.546023 145.317513 191.399904 
212.973380 146.273143 145.589656 
211.269941 145.867090 147.324993 
217.345540 146.605285 191.511615 
212.352382 148.229997 145.383898 
216.175947 148.366955 186.336974 
216.515262 149.352368 188.203785 
216.818889 150.562483 179.041591 
217.282812 149.471349 181.158465 
216.356140 151.416494 173.459515 
216.298100 151.160809 187.797693 
209.900022 153.111108 144.383454 
211.012043 155.384456 143.887721 
211.169306 157.127831 143.637788 
218.896868 157.547251 206.247152 
209.526750 159.146429 143.192415 
210.503492 158.547171 144.898031 
216.704172 160.598512 187.593755 
217.492798 160.671263 193.557632 
217.868956 160.008338 195.121517 
217.280489 159.442130 198.372387 
209.695878 161.235699 144.638925 
210.423120 161.444345 145.844532 
216.728016 161.903393 195.407017 
216.153968 163.557030 193.830256 
217.583505 164.506328 205.415389 
210.986153 169.466424 159.946093 
216.238160 170.699671 198.634667 
211.112721 171.235714 163.211827 
210.931598 172.683853 161.473417 
211.651913 174.286378 160.999604 
211.011351 174.000818 163.645984 
204.875543 175.826147 120.311623 
204.928651 175.942052 121.568058 
205.626656 176.001632 122.756584 
212.059445 175.766846 160.555373 
205.091227 176.726737 124.132116 
212.335276 177.205403 159.779815 
207.334128 179.530654 138.624454 
211.187472 181.175772 163.510325 
210.440582 181.849956 161.848053 
216.152190 182.739570 197.572843 
210.879688 183.391473 161.491470 
210.901799 183.260822 162.745529 
210.376448 183.060436 164.128206 
216.300390 184.020027 199.613048 
206.893396 185.146078 133.810701 
205.412728 186.279997 132.553631 
209.804246 186.282671 163.021683 
211.202757 186.224663 169.453831 
205.453793 187.579379 131.996881 
206.168216 188.905765 131.757930 
215.159430 193.383108 199.783726 
205.065746 193.336916 129.836067 
209.751257 193.373594 161.480242 
210.495117 194.130433 163.189105 
213.126370 193.155826 190.676560 
214.003847 193.889042 196.956251 
215.386077 193.238742 200.963695 
207.080608 193.684064 149.258036 
213.032521 194.787788 190.696846 
209.737049 197.578644 170.482455 
214.356955 197.944908 202.754549 
208.294590 198.695876 158.314511 
209.339306 199.805783 163.985768 
214.063146 199.206829 202.999972 
209.894254 201.170388 166.770425 
211.512488 202.105241 176.101156 
211.799841 201.660254 181.350905 
212.319814 201.638828 190.595948 
213.382830 201.738518 196.852042 
212.686246 202.320129 192.264107 
212.710454 203.084237 193.720809 
212.805960 202.442370 195.219941 
213.892032 202.174425 198.072157 
208.832405 207.550819 167.888633 
209.488782 207.085827 170.295073 
210.183083 208.739720 175.246794 
210.415841 208.445515 179.775000 
208.656515 209.988594 157.480503 
209.517097 208.093901 163.831680 
209.923456 208.204809 168.897519 
210.550181 208.929978 172.830121 
210.883902 209.176308 177.330679 
211.050432 208.882434 184.438620 
213.254360 208.903352 197.291720 
213.978464 208.464157 198.357104 
213.467317 208.446970 202.538980 
210.571697 208.771322 166.423982 
211.326786 210.658598 185.809645 
213.258431 211.424312 189.169931 
213.355976 210.179645 197.917513 
213.180683 209.883220 199.601601 
202.374092 210.839559 112.008625 
210.178315 211.377221 178.017265 
211.678580 211.382130 187.678249 
211.658212 212.109340 189.162957 
201.344230 214.563939 109.830622 
201.671444 215.322098 123.066474 
205.186211 220.670010 148.714201 
198.912559 220.984196 106.098556 
205.025205 221.899470 149.168583 
205.121518 222.282900 150.347623 
205.250002 224.190127 150.549979 
200.489880 224.635454 116.723142 
209.299754 226.390670 178.442646 
211.176499 225.533844 180.556161 
209.116082 226.178650 181.302395 
208.956207 226.625578 182.549999 
201.563390 227.784152 125.562183 
209.943122 229.067070 191.225035 
200.594787 229.600752 123.354058 
200.417094 230.983803 121.515040 
201.157646 230.800716 124.376428 
204.951242 231.491755 148.939307 
210.126867 231.540076 190.786719 
200.545626 231.936322 124.161401 
204.854924 232.900363 148.736764 
211.902652 233.450129 191.861771 
199.989799 233.321930 122.837214 
203.745034 233.979169 149.078488 
208.863503 234.901930 163.231513 
212.539170 235.053225 191.847174 
208.237512 236.845856 167.255418 
204.636201 237.236549 153.932142 
207.679226 238.962267 171.973410 
203.410968 239.038132 149.089002 
208.165373 239.344680 170.402884 
207.847756 239.518219 173.621670 
207.673470 239.249498 174.994168 
208.469311 239.839853 185.549414 
208.329136 241.014747 185.910708 
208.414291 241.181481 187.116479 
207.349266 242.194086 181.136389 
208.175127 242.371852 186.105834 
208.157604 242.368195 188.590868 
208.074335 243.702897 186.616998 
216.002369 136.195236 153.353503 
218.164111 135.847210 168.919264 
214.720675 143.830643 152.309111 
215.334402 143.858190 154.318945 
218.771380 145.382348 190.824325 
213.798991 148.762673 154.670570 
216.809445 147.833872 157.814012 
215.821820 149.940587 164.440896 
217.963772 149.542761 188.318189 
216.503269 149.833207 165.669374 
215.949326 150.012080 167.256946 
217.631969 149.717242 169.675996 
216.199144 149.979336 173.759765 
217.187269 150.427505 176.524124 
217.041358 151.065703 181.244513 
220.303054 158.318341 206.483842 
217.580260 159.331801 179.973291 
220.266455 157.765250 204.574547 
211.196361 159.342538 141.913120 
215.708750 158.498080 161.182107 
216.097700 158.389961 162.541716 
216.086418 160.497506 170.183346 
216.107874 160.632688 173.318507 
217.363233 159.916579 182.656199 
210.961716 159.884026 142.898294 
211.046425 160.002743 144.229025 
211.277578 160.131069 145.618767 
214.758967 160.464498 160.694322 
215.281626 161.180642 165.836515 
216.764306 161.188650 176.524059 
216.698551 160.515156 178.181692 
216.980374 160.373255 184.373436 
217.114544 160.390158 185.919761 
211.112477 161.104495 143.008894 
210.962041 161.232224 144.359517 
214.886447 161.946292 160.384494 
217.051257 161.112254 174.852534 
215.674449 161.737143 178.093260 
216.118374 161.675188 182.884478 
219.355477 168.208774 187.233573 
219.830549 168.734509 195.828089 
212.074336 170.888183 159.163322 
217.112707 171.791912 191.971068 
218.733817 171.699375 203.964538 
220.494002 172.075329 206.861439 
217.065397 173.039588 192.080922 
221.497521 175.017796 205.676003 
212.245447 174.816371 162.577201 
206.743047 176.300228 119.735916 
206.123270 176.038769 121.244841 
219.916810 176.799849 205.901817 
208.259465 177.455320 138.182937 
208.507589 179.175016 137.716508 
211.961607 178.487474 159.946328 
211.686348 180.446766 161.647123 
217.324065 182.725337 199.440943 
209.052973 183.694360 130.203243 
207.694572 183.273646 131.918442 
212.156627 186.018669 170.364480 
206.655045 187.929172 131.408706 
220.402174 187.051228 205.674620 
216.162246 195.893473 184.089898 
214.634385 195.500561 190.420963 
216.294810 195.446511 194.012444 
215.413204 197.076820 180.150567 
215.985834 195.490565 187.057266 
214.638863 196.186298 189.038442 
207.738063 197.286360 143.508937 
210.172698 199.435326 153.536235 
210.464631 200.382851 155.588993 
209.980375 199.979937 158.073544 
211.506171 201.427051 161.134329 
210.122512 201.154218 161.227030 
210.117422 200.599909 162.612902 
212.100385 201.650453 179.807844 
213.664909 201.258884 190.424659 
215.219153 201.812184 198.013257 
211.929603 202.268238 177.935869 
213.373103 202.364567 188.835781 
215.308670 204.435010 201.659408 
206.551546 206.409015 141.959207 
214.617469 208.430354 192.440944 
208.740836 208.606090 158.348951 
209.975240 208.897948 159.984909 
210.494953 208.183979 170.524113 
211.688274 208.556175 179.615348 
212.138674 209.006850 182.598896 
213.686007 209.022472 190.757322 
208.566203 209.951619 156.744329 
209.372480 209.492054 162.783658 
212.680600 210.209378 185.793599 
212.983327 210.923397 187.475347 
205.853168 211.945640 142.610465 
211.265739 211.041368 171.972324 
211.002442 211.435093 176.975176 
201.856160 212.742321 110.712447 
202.110711 212.422692 111.890870 
202.493589 214.437279 111.636766 
201.305309 215.274921 107.708505 
204.066158 216.050208 121.288894 
203.309235 215.698647 122.748696 
203.560517 215.681013 124.042641 
203.975850 216.974040 122.691900 
204.947555 216.949723 125.862943 
203.513739 218.554939 122.394138 
204.150798 218.451242 123.918689 
213.056491 220.186972 187.206570 
201.898445 223.415776 117.143158 
201.628186 225.438555 116.149794 
209.576737 230.731798 171.786716 
211.355692 231.866790 190.621194 
212.223546 232.253283 191.960088 
206.087634 236.902562 154.230024 
209.127521 236.269972 165.525897 
208.597529 236.721929 168.437532 
212.819284 236.570025 190.806357 
208.139092 237.800397 168.840945 
208.011248 238.973374 169.230826 
209.884644 241.824189 186.465180 
205.884363 243.943639 152.778114 
205.109896 243.551156 150.837330 
206.265683 243.849524 154.527458 
206.069000 250.075483 162.953180 
219.811498 132.792667 178.034586 
215.684985 142.160706 154.839043 
214.028490 144.808057 147.062709 
215.970527 144.887753 155.975648 
216.936193 148.093808 159.225755 
215.693546 148.767747 154.345885 
216.374136 148.310142 156.299380 
217.439821 148.709583 175.100980 
215.017108 150.743935 154.132544 
216.334689 151.043609 162.678038 
216.062602 154.394591 152.968920 
222.674046 155.210027 196.036668 
212.492952 155.544190 143.805076 
216.481128 156.294384 151.798336 
221.447832 158.339474 204.181051 
214.540401 157.946859 155.639841 
216.170395 157.686546 163.800483 
222.086953 157.861841 201.344277 
221.486211 157.936112 202.782307 
221.265911 158.169344 205.473499 
212.143739 158.845590 142.610503 
216.568147 158.806454 163.741282 
215.790640 160.434584 167.293931 
212.245477 160.190240 142.657635 
212.513465 160.833405 143.931135 
212.779630 160.234237 145.429873 
215.307772 160.210174 162.506061 
216.045262 160.226500 164.039063 
218.659563 160.769424 190.528548 
219.919928 161.862828 196.951359 
212.037131 161.537193 141.244589 
212.348267 161.508770 142.632266 
215.372670 161.605696 164.378690 
212.513879 162.885706 142.499263 
214.078351 164.763165 143.280342 
219.520858 168.084484 191.796240 
220.009420 168.259957 189.968640 
219.641811 168.477663 193.368601 
211.182194 169.232632 137.568839 
218.398375 170.815431 177.399871 
219.419652 169.847385 191.215860 
220.056933 173.411581 204.053686 
220.323997 173.499446 205.835828 
213.265556 174.691806 161.221125 
210.091139 176.193487 133.387956 
211.540725 176.544260 134.604948 
210.467362 177.400493 136.311049 
210.062716 179.512574 138.177488 
213.264527 178.628809 159.762774 
213.405737 178.982102 161.032847 
213.342022 179.856285 162.607519 
220.047016 181.807842 200.503799 
218.548266 181.280415 198.121545 
210.421856 183.849059 126.590436 
209.319393 183.938439 128.565601 
208.856312 183.532008 131.503735 
217.346603 185.120554 191.409158 
219.718668 184.165602 201.264344 
208.876686 184.692476 131.823395 
208.776973 185.863863 132.873901 
208.578443 187.505088 132.990633 
216.897451 191.592312 193.013437 
211.520724 193.293656 157.899012 
212.451783 194.796126 163.455698 
213.860104 195.438110 174.792492 
216.657543 196.371431 188.596860 
215.940365 195.657972 190.076176 
216.212144 194.881426 192.085564 
211.537077 195.969859 149.543106 
208.374413 196.959999 138.061715 
216.743954 201.438804 196.692439 
217.297120 200.514360 199.116647 
210.334585 201.627586 150.607143 
211.742721 201.515233 148.657885 
208.569860 207.478460 142.238875 
210.659900 209.120264 153.602306 
212.808042 209.097461 176.921166 
214.901262 209.842067 186.862201 
214.684095 209.160522 188.455430 
210.969252 209.209395 148.065248 
210.032316 210.533865 154.878444 
210.606175 210.002947 160.737383 
212.008587 210.061593 172.909107 
213.758937 210.103014 181.313298 
213.525636 210.313768 182.530022 
213.616865 210.256759 184.093516 
203.662927 210.724380 111.579065 
204.792492 215.852387 122.557732 
205.111512 215.903959 123.963396 
202.326846 216.985513 105.924254 
202.460358 216.981779 107.146744 
204.857783 217.092778 124.047612 
202.780432 218.354393 106.714298 
209.521043 221.449221 151.118483 
209.403077 221.358621 152.915916 
203.984447 222.998115 116.485173 
205.094526 223.831012 125.652573 
203.209364 224.939891 116.348812 
204.329025 225.746769 126.338349 
203.711153 226.686759 116.164411 
202.937508 227.137900 118.409477 
211.159517 228.058819 170.362793 
212.546264 227.151097 173.156097 
211.692202 227.182961 174.176942 
212.741022 227.378017 181.866902 
213.007036 229.264085 182.846017 
209.924760 229.935970 158.479426 
209.894286 234.140495 155.769222 
208.899715 235.978241 161.493793 
213.245756 236.929441 188.702195 
206.502853 238.615526 147.324774 
213.876076 238.298143 188.681569 
213.642657 239.688458 188.130970 
212.765125 241.104955 187.593024 
217.255829 140.455629 153.020843 
217.078265 141.881853 153.127438 
215.384905 145.135626 145.584386 
217.054616 145.137194 155.387169 
215.443183 147.147833 146.168894 
217.978112 145.897240 155.081029 
217.699703 146.550403 156.067815 
218.199351 147.617855 160.560065 
218.522191 149.386592 166.861406 
217.870173 150.314134 165.419656 
217.658823 151.090759 164.006725 
219.362233 151.357793 176.153389 
215.981341 152.747704 154.289512 
223.620495 156.091367 194.374265 
222.638270 154.903769 197.269963 
216.778963 155.912823 146.261221 
215.610972 156.537884 150.386539 
223.371994 158.196468 201.878702 
216.498060 157.636559 152.987623 
216.449364 157.345422 154.324539 
216.027360 157.368087 155.983530 
222.987699 159.026560 203.710230 
216.691022 159.141615 159.521945 
222.677810 159.444790 205.090468 
213.689098 160.475591 142.794675 
214.189738 160.415823 143.927799 
214.444707 160.356386 145.244017 
216.290940 160.383794 159.371543 
221.610332 162.346125 197.203426 
213.928993 161.781426 143.191509 
221.985553 163.506509 199.242548 
223.243807 164.794547 200.567676 
213.926525 163.273422 143.043274 
213.858294 166.224943 144.072161 
219.596077 166.609586 177.623639 
219.679033 167.473085 179.096968 
212.243008 168.616000 126.681563 
217.843795 170.153210 164.155370 
212.479058 171.832167 130.766611 
213.230225 171.581331 132.720457 
216.709515 171.431578 162.498049 
217.272325 171.755178 164.063616 
221.259708 173.566211 202.438790 
211.282756 176.470838 133.209146 
212.357561 176.594403 136.096008 
212.749176 176.117892 137.274416 
212.883895 177.725082 137.818312 
214.645777 178.370053 159.376690 
211.334415 180.171445 123.990985 
211.400491 178.316817 136.573064 
211.427882 179.241545 137.884717 
214.702624 179.005256 160.700262 
210.257764 185.130169 132.039900 
219.073910 183.781811 175.805019 
221.006835 186.937769 202.050965 
220.746956 188.894458 202.510382 
220.148556 188.853509 203.952703 
218.519936 190.308926 192.325513 
220.518844 190.475446 202.953285 
220.637238 191.870723 203.012529 
213.466249 195.070621 157.634926 
214.016321 195.382314 163.219117 
216.042482 196.231123 165.768076 
215.404476 196.232787 168.390998 
215.696183 195.693118 170.597361 
215.293304 196.460102 172.887871 
215.811664 197.785987 172.146330 
219.350267 199.910228 198.464829 
212.300979 199.244359 147.883954 
219.549226 199.769532 200.308166 
211.360235 200.705692 147.384605 
211.686761 201.544456 149.879378 
213.066197 202.206599 150.589956 
208.603885 203.435189 124.514569 
211.704343 204.162802 143.615747 
210.118980 207.033952 142.244736 
210.017804 208.648418 142.388518 
216.477806 209.004197 193.158667 
205.522433 211.788223 109.254246 
206.483810 210.640827 113.004595 
211.224045 209.169764 142.765871 
210.929070 211.401826 144.755597 
212.033520 210.212960 150.108369 
211.616225 210.610674 155.171246 
205.329152 210.932908 111.367629 
212.030348 211.509998 150.479989 
211.495173 212.936015 150.773349 
207.457459 214.517811 122.584063 
206.751646 215.956614 125.001045 
206.357233 215.595811 122.515396 
206.646006 215.736982 123.819070 
209.831669 219.691299 151.756134 
207.490465 223.006485 123.828302 
204.916948 223.529931 117.360508 
204.408996 224.930061 114.998185 
204.654888 224.991953 116.744282 
205.942717 224.823303 125.876034 
210.222964 232.214035 156.111703 
211.251778 232.143680 159.457119 
210.627188 234.046371 157.524552 
210.713401 234.155562 159.102625 
211.329125 234.004644 160.477316 
215.022859 237.126985 183.722338 
214.429980 237.631990 186.765325 
214.496008 239.072345 189.664329 
213.842591 242.293961 178.421028 
218.500263 140.648325 152.941785 
