-135.57557        0.23814        -27.27551
-144.43131        -0.66645        -37.90244
-134.37387        -18.05015        -27.28011
-140.53169        -9.58115        -34.26031
-135.54452        6.84945        -43.20847
-134.08737        15.15037        -30.67832
-130.99839        14.81500        -45.76696
-116.31218        -21.32016        -24.61006
-107.92232        -18.82159        -42.94143
-124.65429        -19.76869        -12.32941
-123.22988        -16.39204        -29.45604
-116.24004        1.23824        -9.78342
-124.78709        3.22478        -48.96111
-116.31118        0.99472        -44.18048
-121.38093        17.68732        -32.07327
-124.44218        15.39768        -5.05609
-118.55429        17.24031        -42.96350
-122.25648        21.26182        -7.66410
-119.26909        24.17989        -24.35897
-112.86241        29.21403        -4.06285
-115.09503        -5.14503        -4.45523
-112.07532        29.45806        -19.94827
-111.02907        13.44149        -41.05098
-109.87925        15.23857        -22.22811
-109.77205        20.49439        -9.35169
-102.34471        -19.90440        -30.02199
-94.38658        0.64419        -34.42540
-103.90354        -7.10794        0.74384
-94.70104        25.45723        0.96275
-104.69049        14.86140        -40.10026
-97.40565        24.69363        -23.07112
-103.06408        24.24500        -41.26614
-92.65688        95.11960        -25.71005
-98.72361        -74.33965        -6.81461
-102.46776        -20.76626        -62.16434
-99.22789        -15.72892        -53.76710
-98.90350        -11.83275        -65.15292
-89.43827        4.40705        -0.13946
-91.08706        75.92449        -26.15970
-88.43389        -112.96462        -28.76541
-77.40440        -93.41094        -43.95594
-87.44186        -96.01765        -29.41510
-95.16074        -94.88497        -49.82644
-94.92913        -95.57501        -24.80775
-95.58037        -79.30779        -5.42791
-89.50285        -66.03506        -21.06987
-89.28670        -60.73595        -1.01625
-95.69437        -9.60400        -60.31473
-94.63613        8.95472        -9.33918
-95.58946        9.96593        8.47767
-94.95926        40.18810        -4.47151
-80.00279        111.58136        -30.08410
-87.92841        -115.24494        -39.64583
-86.74832        -88.56355        -4.08164
-89.64603        -79.77827        -49.74568
-90.45092        -82.06691        -8.85337
-86.93016        -54.14889        -25.82820
-91.14518        -15.78226        -54.57272
-90.46441        -14.82307        -29.87096
-90.26027        82.96609        -44.41658
-86.18576        103.53982        -44.13779
-85.67941        -90.44259        -15.73043
-85.95510        -77.96503        3.67313
-85.69161        -68.74027        -8.60916
-82.84508        -66.01519        -40.95705
-85.01598        -60.36782        -9.22569
-83.76991        -53.53459        -16.88993
-86.34932        -14.75563        -34.07793
-86.33181        12.96757        16.11846
-84.99954        78.49898        -43.08165
-85.39672        90.26773        -7.05536
-84.85738        110.22850        -46.07395
-63.85296        -87.41991        -16.39398
-82.21559        -80.01462        -49.99559
-79.28425        -79.05103        -41.05146
-63.34636        -69.09076        -33.93574
-79.69009        -54.93328        -25.09002
-66.74928        -51.48103        -0.90741
-71.61338        -1.88526        -35.45818
-77.96395        15.43623        -2.06583
-79.29133        17.66157        -19.00564
-79.79496        23.78156        -15.72405
-79.41858        69.27851        -60.49852
-71.26235        72.49404        -28.87072
-67.90273        71.64334        -46.01221
-50.33056        84.17353        -31.52352
-68.05838        90.01712        -31.21433
-71.09469        85.81866        -19.55717
-70.98195        96.05952        -5.95004
-76.57965        113.96473        -42.70068
-74.80870        -85.97039        -15.25491
-77.78459        -70.45991        -34.27164
-74.63054        -61.56051        -39.71787
-74.79359        -54.99881        15.13010
-74.07865        -54.66605        -29.43602
-67.48712        -17.07684        -41.99164
-76.84020        25.53380        15.11549
-74.14469        69.87012        -54.21649
-74.94403        74.62301        -15.89117
-71.61443        77.86141        -1.83868
-75.12176        99.40500        -48.74082
-70.06694        -82.03267        15.14651
-65.60286        -53.48867        -20.06103
-52.88438        -4.01719        -23.48232
-63.42938        22.58172        -5.54008
-70.09651        69.61938        -60.74656
-66.59668        -90.37777        12.81902
-65.20679        -79.77480        -11.97071
-64.97136        -60.37469        14.94559
-65.66512        9.14519        -7.06386
-61.58968        5.59752        2.49669
-62.13892        22.84707        -18.87770
-61.08857        50.25626        -30.23178
-68.38839        110.14313        -25.36264
-60.61306        -110.23368        -40.28303
-59.97614        -54.91308        -45.82640
-60.53152        -40.06045        -8.50721
-38.38638        -28.94166        -21.20423
-60.65420        -30.40673        -6.29351
-47.29691        -28.82429        -3.54071
-61.28078        10.07014        -9.67241
-58.15577        40.68352        -37.04652
-60.32198        49.51057        -42.71027
-46.76741        73.21838        -0.20830
-59.34742        74.55081        -18.84047
-60.21738        74.05157        -9.29942
-58.88747        87.19290        -49.87366
-61.44450        104.38902        -8.20050
-58.56722        110.95344        -28.82990
-60.72559        110.09725        -7.31407
-51.72459        -111.79619        -26.87726
-50.76911        -90.98999        -45.13000
-53.28437        -78.45425        -53.50236
-52.28132        -79.70493        -40.20167
-53.43941        -64.55825        -2.73043
-48.18436        -50.13488        -42.87979
-52.29539        -54.66758        -34.42789
-51.21748        -39.57601        -8.41041
-52.77701        -16.89301        -27.21978
-53.03684        1.07471        -41.24560
-56.84202        0.12912        -6.61898
-46.51067        0.20276        -0.41490
-54.97661        5.07646        -4.77902
-54.81855        8.81545        -15.57262
-49.21503        21.69266        -19.54585
-51.65484        21.95821        -3.52379
-53.34100        34.04964        -33.49572
-41.67149        47.21165        -42.41242
-45.91941        47.18281        -25.17244
-54.76841        54.65621        -40.53967
-54.78256        90.55469        -40.42022
-54.76585        90.17513        -24.77717
-40.38128        96.04273        -0.80107
-53.52534        103.23814        -28.92297
-54.33002        104.53054        -0.60113
-54.68502        114.63581        -7.18453
-52.27688        -85.51728        -63.30475
-50.68123        -78.57285        -58.15741
-52.31082        15.47904        -8.83146
-45.13685        31.97849        -29.43061
-50.06178        85.11697        -8.41412
-49.48624        112.17148        -7.17441
-45.09806        -86.91420        -25.26573
-45.20157        -79.97821        -16.10791
-42.41199        -52.31968        -30.11338
-41.59731        -43.11686        -19.13732
-40.87504        -42.28766        -0.13892
-42.25652        -14.97965        1.87740
-45.75472        -0.01884        -15.50049
-42.24206        6.00757        16.48622
-40.50913        32.15492        -19.46605
-45.77594        39.80976        -34.39572
-45.10824        85.66213        -3.96141
-45.79341        95.53156        -41.21247
-36.06409        -6.49714        45.05194
-41.02863        0.09303        30.30772
-27.48725        6.64384        -2.40976
-39.87752        9.36756        9.51555
-39.56132        26.16968        3.38687
-27.20717        24.49508        3.28273
-40.28728        39.91541        -34.80815
-23.03089        52.79047        -2.50788
-37.24434        86.42355        16.14152
-41.70165        87.68575        -40.40790
-29.70543        -64.51391        -42.15882
-31.62199        -64.05253        -29.51806
-27.90789        -60.67133        -16.74182
-27.85459        -48.04924        -29.62313
-34.63598        -45.32698        -4.81074
-25.38424        -31.84466        4.01727
-36.76180        -40.23822        -24.71707
-34.56271        -34.64158        -31.71751
-30.56554        -13.16890        -8.46910
-28.83247        -3.96545        -17.32129
-24.22195        -5.80300        2.52033
-33.99345        -9.81617        28.58446
-34.74757        -7.82232        40.39879
-33.00221        6.14156        16.57277
-33.08695        2.42933        53.17330
-35.13166        4.37046        42.98170
-21.65753        2.19452        32.53721
-32.19826        15.24814        -0.32563
-34.22353        13.86590        50.37602
-34.64078        20.01288        -9.97714
-31.61702        30.13639        -27.50367
-36.54368        33.42099        0.11052
-28.70140        44.59114        -30.46423
-33.83166        37.68650        12.91185
-36.29400        58.11418        -5.42766
-31.58532        76.87775        -0.29622
-33.28045        76.29987        -18.37044
-33.87889        85.72622        6.81074
-29.25733        -45.50492        -6.77051
-29.52996        -34.43442        -15.75298
-26.99149        -20.28962        29.30875
-31.03100        -17.31074        50.49474
-29.77083        -14.81874        -14.89820
-25.64900        -10.94260        51.06321
-29.42864        -13.46051        57.91298
-29.46852        -4.52450        24.53106
-32.20801        -4.32989        34.56927
-29.53024        -0.02783        34.69362
-29.29181        -0.09309        58.54900
-22.97009        23.55418        -17.36163
-28.92397        16.13372        -9.59915
-28.22545        23.17341        42.15970
-28.13342        36.59797        -15.49399
-21.82544        33.01697        15.83122
-29.60300        39.77290        -20.35693
-29.14204        88.95171        4.65056
-25.52330        -25.28178        40.91493
-18.62439        -15.83023        -7.80307
-25.04207        -15.38343        19.57851
-25.11068        -15.80605        34.06103
-24.66700        -15.59457        42.41463
-23.80932        -4.70704        14.90145
-24.73674        -4.76188        27.30764
-25.20870        -1.03143        43.52968
-24.88425        -2.53457        58.06121
-27.64281        9.16817        40.56866
-25.05659        9.41083        45.32332
-25.37558        12.56956        52.28643
-25.34438        19.60604        45.91126
-17.83571        30.56775        2.71430
-25.63966        33.16392        31.55286
-24.71933        48.96362        -13.09817
-5.83707        62.83389        -23.00974
-21.14578        -60.11060        -33.85797
-16.22418        -61.68580        -17.92065
-4.63324        -50.79520        -3.97586
-16.68272        -34.47022        -0.41921
-16.48085        -31.74033        44.56029
-21.11449        -29.48996        53.63325
-17.47590        -26.46224        34.48709
-6.11525        -23.85351        51.05867
-21.07784        -20.81842        54.84412
-16.85869        1.32229        48.80450
-20.03136        9.63640        -15.32104
-14.78805        16.67841        27.81924
-21.05612        19.96451        24.56671
-16.21347        20.15691        47.87088
-18.37510        25.21080        55.96979
-20.57832        24.23027        34.34037
-17.04367        40.80266        16.18483
-15.43127        -110.68233        -13.70742
-14.87377        -110.40619        -0.82753
16.94893        -85.92973        -26.07890
-15.40828        -100.83859        -5.75778
-15.01147        -102.41935        8.28748
-14.94113        -97.72703        -18.12436
-15.34106        -55.10919        -15.36582
-15.37454        -25.35514        24.45012
-15.20398        -16.86956        34.18960
-15.21333        -21.10375        58.24370
-13.93435        -16.30067        2.88329
-15.13783        -9.75918        55.94609
-8.63877        1.52162        2.50957
-4.60760        23.04052        -6.60109
-15.62698        17.41759        4.65469
-15.54717        19.82237        34.80595
-14.65486        33.62599        29.10305
-1.11435        -113.63625        -20.83359
-3.70696        -113.04664        -3.56029
0.59373        -91.45562        0.35008
-9.39882        -94.28654        8.82991
-6.23594        -64.11145        -20.07476
-2.96254        -65.58408        -6.53613
-9.49977        -63.07408        -0.79085
-9.66922        -54.78685        -18.13266
-8.98013        -49.14356        -16.21301
2.68093        -48.73308        -24.47719
-11.69178        -41.01376        -9.27727
-8.82982        -31.21155        -15.32359
-7.65347        -31.65400        -9.49861
-6.67672        -34.31668        0.13519
-2.81714        -20.96727        -2.26371
-9.67468        -27.62532        45.45641
-8.87892        -28.89630        49.89109
-8.80736        -21.79222        -16.45068
-9.37735        -21.39247        29.55107
-9.67244        -20.10160        40.37101
-0.90403        -17.54804        32.41463
0.61109        0.32703        28.03137
-9.38736        -9.26178        39.89860
-8.16692        -8.02805        55.55676
-10.12118        -5.47431        -9.31783
0.44375        0.55961        46.00526
-11.98121        4.81195        -9.08501
-9.57141        9.26680        30.28975
2.25705        18.82907        36.28794
-7.60221        17.40555        54.93146
4.15968        26.71996        2.07863
-5.02106        18.80688        41.62962
-9.09113        27.33986        42.05326
-4.65941        28.48586        50.08718
-9.34241        29.11592        19.28642
-9.33277        28.67073        34.03091
-9.59905        34.41562        50.45698
6.46975        43.43581        6.76280
-5.27364        -36.58372        50.32204
18.65653        -26.84315        3.09777
-4.18495        -29.26045        42.52954
-1.65473        -17.99484        40.68743
-4.68227        -8.55719        41.71795
-5.31584        5.22638        20.07643
-5.38630        9.53367        55.40224
0.97924        14.87799        1.76379
2.73611        42.86053        -22.92193
-2.60881        34.38778        40.47014
-5.13674        33.50204        57.85559
3.43153        69.60575        -42.23780
5.30799        111.44998        -31.94927
6.52251        -123.04693        -7.61839
-0.03544        -105.02470        -41.18432
4.83665        -42.43845        16.78811
3.77466        -34.41744        16.05475
0.04160        -31.51375        30.55084
0.55049        -25.60530        0.08540
4.48072        -18.91249        54.10139
9.11952        -1.08354        2.30141
0.39590        -15.01160        9.22635
-0.00102        -0.15172        39.89396
-0.44166        8.90019        19.79327
0.11398        20.18636        49.68642
0.17893        26.33668        27.24363
6.21271        22.79661        55.74652
4.71989        31.51476        34.64994
1.37917        39.65662        44.62716
5.51444        115.63361        -42.80678
6.56513        135.00233        -26.38201
10.01087        -119.76615        -33.40873
3.88114        -119.16408        -4.42436
7.19135        -115.75807        4.00860
7.92320        -61.61264        2.52506
6.37772        -60.37547        -18.88264
9.68662        -51.96781        -41.67054
4.27641        -55.01408        -15.73961
16.49073        -46.25813        2.20854
7.00921        -34.18926        -17.78360
4.03278        -36.47074        40.87602
9.51531        -23.23725        -16.53103
5.59140        -25.05752        40.26415
7.09546        -25.13812        45.05728
6.26650        -20.65177        3.11869
5.18249        -7.22838        19.73647
4.87783        14.70255        9.19075
4.85658        20.31899        27.47842
4.57532        24.70031        45.03041
4.86576        37.36100        53.93022
23.63007        94.58963        -31.88446
4.24713        104.68364        -60.95846
5.35098        124.22416        -39.88618
9.49283        -119.28216        -43.64381
9.73730        -104.90946        -40.23908
9.03172        -108.28803        -29.33753
9.52154        -86.27345        -42.48058
9.42116        -69.53137        -6.81325
9.01736        -61.68849        12.79045
9.03026        -40.86101        31.64778
9.72259        -27.08188        24.82125
9.04363        -29.91164        34.50393
9.47383        -15.48522        33.54363
8.88133        -9.37823        -6.82381
10.08606        -11.93338        40.64951
9.73580        -7.07927        54.55650
9.40593        0.21491        19.73935
9.85848        4.11177        56.24238
8.76288        13.19043        20.20019
9.44116        33.92512        16.26729
11.82716        42.50381        -20.59248
9.05988        40.22478        30.02411
9.37159        37.73886        38.42549
9.89655        51.80403        -41.89397
9.48625        54.89521        -7.20324
22.45930        72.87114        -33.71520
12.27090        90.23442        -40.31174
9.67385        99.49988        -63.22027
10.01121        104.86152        -16.06951
15.15008        -135.59566        -51.96555
15.53383        -135.16187        -24.94538
32.67748        -105.19512        -40.85731
15.22594        -124.81173        -34.61108
13.40379        -124.52526        -29.68789
14.95086        -127.02314        -25.31125
24.70328        -114.15262        -1.49262
29.27239        -118.28311        -18.65192
25.70701        -111.60440        -33.60817
16.39888        -110.61069        -27.57484
17.98740        -89.66056        -1.69613
14.79589        -85.87639        -25.61387
17.23352        -81.39694        -16.40357
20.24532        -76.80027        -42.68171
15.84016        -78.68646        -2.73994
15.30307        -74.99945        -9.66867
24.18546        -62.13578        -42.98194
28.41354        -47.38869        -24.12236
15.10633        -54.69640        -5.25334
15.20427        -45.36564        -15.61700
17.17434        -29.94331        -16.59437
15.60299        -33.69142        45.13747
18.41201        -26.76233        40.03077
15.57109        -28.55337        47.09479
20.90607        -26.45097        -9.14607
17.84362        -17.08317        -6.32514
18.92034        -19.77289        32.58271
16.26548        -19.47975        49.12155
14.77488        -15.31358        39.97186
17.94780        -7.79766        32.07570
19.92701        2.07463        52.21558
27.78197        -1.02591        2.24535
13.70192        1.81412        7.32410
24.25500        5.13068        32.41026
18.59337        9.52203        -6.38212
27.99603        20.56487        -20.35256
16.82527        26.21784        31.40367
34.67538        23.60245        2.61570
17.24296        23.95726        41.96863
18.63271        24.64075        55.52596
12.76212        33.67723        42.79291
24.57834        49.76870        -2.86603
16.13285        51.84385        -40.82596
25.80402        49.46731        -23.45021
17.07271        52.97730        0.60796
18.06976        56.44273        -19.65684
15.95544        59.94229        0.09603
15.14503        85.45160        -43.69683
39.33066        94.41241        -0.64681
16.03985        104.92304        -13.12171
26.15155        117.07772        -45.18996
18.15794        111.20673        -30.29436
20.30980        118.12676        -19.37439
29.87585        115.53703        -2.85205
28.08308        136.03206        -27.42374
27.87047        -132.80798        -28.88341
20.27081        -113.09234        -15.19112
20.48085        -109.68719        -40.23473
20.22281        -103.40684        -48.98642
19.68409        -32.20922        28.64011
20.05688        -24.89970        57.78470
20.15851        -20.63589        54.23433
30.14467        -6.25265        -17.01486
23.89885        -8.86673        42.53435
17.58307        6.71818        25.62024
20.01308        9.98193        -14.92185
23.31773        13.04575        41.62467
19.75286        16.60896        29.12962
21.41366        24.94596        -9.55939
29.22744        76.37943        -1.11905
21.09856        114.93769        -34.41046
25.66418        -104.70989        -34.37195
24.85474        -34.42792        -9.39627
42.51702        -23.85155        3.38492
24.75201        -27.49546        50.28984
24.99930        -15.58467        42.83369
28.10131        -16.37999        52.86679
24.66971        -4.64746        28.44030
27.19304        17.86085        34.59222
24.87524        17.50746        24.62001
24.93509        24.52931        40.42341
24.83699        28.98560        -11.80067
25.13213        34.12250        -12.08993
25.43434        56.51625        -9.30329
24.42195        99.83540        -12.16661
29.98101        110.33826        -33.08903
24.17679        104.25874        -18.17268
24.16695        114.81663        -24.77531
29.61937        132.58969        -44.79970
28.77869        -85.90483        -40.38284
32.51428        -26.28673        -18.18837
28.48327        -25.24638        29.87630
29.59556        -19.76882        42.83030
29.06053        -8.30170        24.87635
32.24835        -8.83284        34.62768
32.69493        -5.07133        45.04215
29.11995        3.07938        43.22542
33.43139        6.44277        16.76761
32.58668        11.18451        43.73062
29.40242        9.25491        54.61461
32.77043        15.21125        15.77563
28.56586        15.48372        20.87280
27.29489        25.02109        28.69566
29.32282        23.84920        44.94678
35.01862        61.16159        -9.09832
30.03161        65.84956        -10.15012
32.83733        114.10059        -15.21881
31.59964        123.02480        -28.85285
29.08815        143.72874        -39.74417
34.38126        -140.43485        -39.60718
35.62977        -99.32250        -15.86641
33.85677        -93.91065        -63.21249
33.10902        -53.77508        -33.48853
35.08436        -45.21132        -7.24996
34.33469        -9.64997        -0.52977
36.32240        -5.28555        28.57267
34.20979        -0.77770        -4.66838
34.14412        0.61480        0.19342
33.36203        -0.60096        57.97573
34.35142        17.83343        -9.57298
33.01148        14.89169        51.42333
34.35862        45.03345        -15.79947
33.54526        83.09042        12.78272
33.36102        125.08654        -20.52803
34.68386        133.05748        -39.98604
43.26631        -133.96156        -28.32758
37.86952        -130.12475        -16.71752
48.49048        -116.58004        -24.41037
38.40737        -122.03663        -44.53349
42.21186        -111.18385        -42.93240
40.22566        -50.40861        -9.22038
46.47395        -45.98573        -5.21941
46.93274        -17.31239        -28.40285
38.43085        -29.39225        22.79693
40.16204        -20.57931        -20.49538
38.34012        -19.82382        33.02309
47.06371        -0.27451        0.63782
41.59431        -9.97114        16.25926
37.45468        -9.17011        44.78794
40.72431        -0.56506        -11.83892
47.25336        5.79494        -19.75095
42.12761        6.99004        16.65285
39.66862        6.49502        29.92987
37.59853        3.63638        50.12725
41.40818        17.96238        -18.94470
40.96291        17.94826        16.33318
38.15599        18.06194        32.98290
48.40476        26.69982        -24.77248
46.97881        44.80478        -22.66012
41.01703        50.66750        -5.42267
45.40423        76.77925        -0.69609
49.19547        95.83471        -22.24248
40.64236        85.98270        -3.92732
41.13118        87.95981        -39.95384
40.51895        110.00104        -49.29896
42.67283        114.51834        -41.25966
43.68361        116.94551        -33.40503
39.61934        119.15871        -15.53699
40.10439        124.68926        -40.41433
42.00012        133.82360        -42.35939
38.41980        128.81696        -11.30074
44.10781        -95.25021        -61.43870
45.53346        -31.79766        -15.70997
52.77322        -25.94674        -40.76168
51.32036        -22.09012        -18.75977
45.39124        -11.95247        -24.86678
44.26664        -2.79854        -8.53796
44.56399        9.90230        -9.33794
42.36465        45.19389        -24.77637
44.28817        80.39404        -27.21238
45.09299        84.02159        16.03570
42.75237        119.96613        -27.57410
44.10189        123.95898        -45.84662
49.16573        -130.38403        -20.37541
48.83771        -115.20009        -40.24220
50.05105        -34.93441        -9.63018
52.39949        27.81055        -41.38828
50.17684        26.27086        -6.90841
51.73984        43.81000        -41.91858
49.36084        107.86579        -0.95665
82.79274        -52.36239        -8.74197
53.25638        -41.54072        -14.95729
54.22984        -31.65021        12.80491
53.41626        -21.07973        -9.23166
54.96494        0.10642        -15.57483
58.76365        -56.49982        15.11529
70.56937        -42.72851        -43.66387
68.26987        -23.14554        -42.90783
60.85787        -35.98274        -6.89136
70.47953        -23.84938        -29.98397
63.94290        -3.07827        -19.41174
61.51990        -8.27227        -30.78916
60.95258        -4.42369        -24.65589
65.49480        6.16034        -4.73103
60.90717        16.20538        -9.43169
62.56838        19.84138        3.57634
72.02597        29.16174        -34.98581
61.74778        45.76102        -42.07405
68.95588        44.94250        -29.41158
60.25801        88.11464        -4.20567
60.11355        97.46613        -1.84752
56.35064        110.24504        -8.34797
66.38515        14.75510        -15.06929
76.24815        47.45031        -47.22129
65.13726        94.53793        -10.09982
75.79147        -67.00489        -22.92668
70.56036        -60.92156        15.18158
72.83198        -34.86734        -7.85112
76.94466        27.37011        -1.70965
73.46347        -65.15325        17.74327
73.60011        -49.57494        14.87368
77.03361        39.91070        -15.78587
78.80680        40.82149        -4.76438
80.13122        8.76824        -0.01530
80.02508        49.54952        -40.40649
104.79667        66.14721        -26.27894
79.61352        60.80193        -24.76898
88.39383        -69.88395        -21.30549
83.01568        -66.16799        -41.25616
95.69213        -46.70958        -45.30980
85.64071        -40.84132        -40.62991
85.89619        -40.48287        -34.80873
94.28354        -29.64870        -46.26901
87.95310        -29.95439        -29.55797
85.52197        -30.38278        -40.45086
85.27495        9.82465        -2.89980
93.80471        24.97731        -0.15761
94.70714        28.49019        -22.88127
83.64287        25.56836        16.09003
92.23670        48.49123        -46.30041
85.28313        40.53308        -40.65174
85.75869        39.58459        -34.70494
84.46138        50.12507        -23.01859
84.66536        62.23954        -60.22788
95.10132        64.53493        -42.23205
87.58610        -61.11963        -33.82206
89.97595        -60.73873        -29.30013
90.61337        -33.88616        -21.38859
90.56434        -25.62336        -17.99889
90.55893        9.19951        0.20226
90.77800        19.30343        14.91973
90.91401        44.20936        -11.65018
99.77764        50.12573        -0.07270
90.21764        55.06228        -15.33606
90.49260        56.52240        -53.95044
90.70223        60.40568        -16.70507
100.75452        -64.41691        -42.63760
95.70022        -65.98980        3.86638
104.35465        -64.56705        -3.96730
100.95056        -28.08738        -31.91222
94.82063        -32.17007        -63.23693
100.13462        8.27704        -6.65155
94.41747        9.53353        8.66816
94.23951        24.31022        -39.70494
94.54617        34.82026        -45.46544
100.27747        41.47261        -27.31824
101.03634        -67.41532        -32.87421
98.70991        -69.45512        -49.64414
99.78990        -33.81661        -25.29460
102.34868        -33.37838        -17.93462
99.35258        5.31930        -19.58558
99.30836        9.78340        -15.69236
102.41290        9.79350        6.23067
98.94523        18.03839        17.68973
100.88995        33.99432        -39.57846
98.44390        40.12307        -49.80493
99.46667        44.57900        15.04521
104.72012        -62.79453        -15.84154
106.82664        -33.27439        -49.04635
104.15654        -34.58701        -29.11359
101.82988        -25.81653        -61.44875
103.89343        23.82363        -41.06293
104.73460        47.60725        -49.73901
104.25312        45.04629        -15.34552
104.07683        49.83686        -60.26045
103.71986        53.60268        -24.59006
103.22965        58.13988        -49.26481
112.04947        51.65213        -3.71023
121.90821        -44.62784        -25.82903
109.30555        -69.52841        -27.12768
118.12421        -65.21064        -42.54050
109.92525        -61.85218        -15.74810
110.73489        -45.18896        -43.77963
112.51625        -49.09403        -2.37915
110.00502        -43.13214        -34.35781
110.76665        -39.95069        -29.14963
113.63919        -30.67456        -42.58109
111.97685        9.41795        -13.54756
110.40661        9.76883        -2.32941
113.55218        22.42088        -20.27370
111.20769        19.03100        1.88961
115.02295        23.89463        -5.49744
109.84266        28.48908        -9.14908
113.02449        34.11814        -49.64573
116.74609        47.55886        -43.18980
119.38729        49.05730        -30.02944
113.70138        46.53144        -15.36317
112.98481        54.42148        -15.03675
108.02373        82.66954        -36.52981
115.10887        -57.05694        -49.46190
114.87841        34.74992        -42.66181
115.32376        34.19167        -33.23102
112.46799        33.95704        3.78559
115.60751        54.02966        -49.56886
121.57763        -55.62471        -43.59960
121.76815        -40.09619        -33.70396
119.86531        33.76044        -28.09863
119.73458        33.97582        -7.37393
121.31500        61.43477        -44.54719
123.78460        27.70543        -7.02810
124.29743        50.39890        -11.30098
131.26886        -32.83123        -35.70211
128.81704        44.55688        -51.96903
128.40514        44.94867        -24.88900
131.53581        52.95227        -42.78096
132.55182        52.84567        -30.45196
130.30393        67.10731        -39.74020
132.82684        -60.82496        -39.72711
132.80390        60.45956        -40.60292
