141.17812        167.59548        226.51856
141.70759        174.20503        213.27659
141.68476        173.61522        218.98680
145.64921        180.97738        209.34442
137.90302        185.13786        213.91025
141.76881        184.68712        219.06422
147.04491        186.52165        238.86023
137.64337        197.52549        234.05275
140.06071        208.93521        233.75913
140.73395        244.04379        213.29342
136.61244        249.05881        219.07787
142.55330        254.75519        207.72586
143.14376        256.66752        222.77179
139.17300        257.36310        205.03923
138.66672        264.88548        225.49255
141.09253        261.47388        242.07807
137.89455        267.53718        213.26186
138.86787        269.14509        231.17877
138.40006        268.91104        239.35783
141.64440        269.22236        251.77960
141.46921        275.62081        242.84218
139.81681        284.20126        248.83933
138.25664        283.00727        258.28278
137.51505        289.00226        229.05441
137.87848        291.14910        234.42393
138.57572        295.24327        239.29567
142.20122        158.40314        198.52107
144.31604        180.49214        225.21778
145.77337        183.15987        250.97827
143.33808        206.97686        242.40113
143.64580        256.40717        248.68616
148.82156        258.29127        235.40391
144.01294        276.43568        231.85163
144.50868        279.15025        253.96795
148.95250        164.82244        209.28152
148.68193        167.90433        203.81900
150.11547        173.83330        213.20613
150.87240        194.23443        250.10711
155.69457        201.18975        242.25207
148.79182        203.35549        234.11576
148.46866        208.92389        231.79834
149.96754        228.72051        211.38068
157.35344        237.52175        216.81584
149.52905        249.35045        243.65424
148.76283        253.76740        209.52232
155.20674        259.49173        248.31287
150.53672        269.52931        234.05604
151.18414        269.35252        240.69230
153.77139        203.97780        224.65178
150.70350        205.29516        239.08737
156.70858        210.47605        233.47965
156.32331        221.98225        218.88340
152.83028        228.95373        204.10939
159.96093        232.53498        227.00258
152.96944        249.38045        248.36023
158.61939        102.54210        242.98111
158.77589        118.90190        232.19378
158.71986        194.74472        228.31948
162.30658        199.37806        233.71029
158.87759        206.35687        224.20415
157.53140        210.30089        219.06863
159.36481        218.52636        231.17698
159.00427        225.86950        208.31739
159.41855        233.91420        208.29692
158.74206        239.33758        207.84841
164.02688        256.08544        242.37465
162.91969        266.02480        233.58494
165.58363        268.27465        243.17893
168.04897        97.03859        224.61937
163.84042        102.92378        226.39839
162.36660        102.43532        233.54897
163.97300        113.28635        230.17479
166.83524        113.93060        243.40217
165.87487        118.62389        228.42027
165.40348        180.10651        217.34357
172.89830        179.06139        208.07956
167.87963        195.58697        225.79633
168.93323        197.70440        200.77219
165.62382        203.98616        222.76408
167.81313        211.32776        224.03774
167.54340        226.04958        218.31657
166.80886        228.28811        205.57552
164.73837        233.60800        214.99503
163.96931        238.90945        203.99196
164.39752        238.95003        228.84314
164.06645        244.85702        202.20106
163.77975        254.30974        226.90981
168.46416        123.95583        239.08995
173.70634        130.40474        251.29676
168.60198        173.43106        204.33827
168.40869        171.85332        209.31202
175.50403        182.72105        225.74521
168.36954        188.24910        204.16621
166.80685        188.49045        218.50073
167.80284        196.25222        213.25012
170.16830        196.20215        234.84803
171.42312        203.83374        199.18113
168.42359        204.07689        209.30958
172.76155        206.97164        209.70564
168.39616        210.16370        234.93155
172.72661        211.89228        196.83404
168.19147        233.73442        203.77831
168.07033        237.60100        213.71269
172.05735        244.60554        199.53798
167.96996        243.90968        213.44901
168.14044        243.53521        226.49310
168.71736        241.80878        233.56439
168.48271        249.08452        224.08208
168.41466        249.10368        243.49260
171.55433        255.58587        222.32513
168.24954        251.41000        233.88869
169.32412        261.76543        227.43814
173.51542        261.64788        235.82643
170.06863        267.75272        219.21051
168.31900        319.32168        209.74441
168.47444        323.90393        213.04166
175.48233        88.33303        239.81835
173.73159        93.50578        235.67656
173.97043        102.32631        213.50185
180.30610        114.30016        211.59918
175.45699        113.37607        228.23071
173.81476        124.32763        239.70643
173.44998        172.24553        219.04165
180.86320        188.57924        204.21495
173.92388        188.91772        215.50870
178.07463        198.53919        204.09573
173.85405        198.43647        217.29213
178.25291        207.32160        228.57111
173.98863        213.29682        216.96565
175.00040        213.02299        233.83631
173.72476        218.60655        206.28289
175.74280        218.68829        213.59844
173.90048        228.70732        204.07060
173.91209        228.76509        222.67809
173.59584        231.94175        200.09890
173.85245        234.04576        212.80993
174.13236        240.72419        216.24596
170.76054        242.72913        240.73160
173.73268        247.12222        211.38991
173.70851        251.05543        234.06709
173.36295        263.73941        220.83331
177.82411        310.42672        211.10620
174.39737        312.99054        203.33890
173.97327        312.99219        218.82993
178.41079        312.88906        224.76788
174.23046        322.56660        226.56135
179.07375        81.90631        241.52547
178.59521        92.52171        230.27321
180.35570        92.05024        248.70861
178.42935        100.33537        203.68875
181.50957        102.79880        219.29872
182.67588        103.32198        248.53144
179.36815        109.36439        197.88700
177.76320        114.12570        203.28173
181.08773        112.78062        219.45878
185.58783        115.21902        246.95461
178.80525        119.15579        234.05893
178.97714        122.78016        239.40429
178.97941        122.89373        249.05670
180.41338        133.68885        231.36252
181.29710        133.88694        253.91150
181.27996        152.19858        244.00566
177.76734        152.82923        233.70270
178.87312        170.15016        218.61766
178.62517        181.22651        217.68679
177.21508        190.60089        209.37649
179.05512        197.06019        225.56344
179.47088        198.72440        196.61091
179.06645        198.28488        211.40978
180.47729        203.85278        190.04306
178.79813        203.88087        218.80425
181.61862        210.53472        203.96318
182.44917        209.74287        215.02486
178.45727        218.76005        196.47839
177.80645        226.23574        214.21427
182.32544        229.94000        189.98061
181.23687        229.34527        203.47425
179.37054        236.92560        197.43225
176.17850        234.30880        224.55235
182.10348        239.39638        189.69933
178.77721        237.88165        203.77910
178.12354        238.26257        211.56517
179.01710        239.52356        218.64967
179.52043        239.08863        226.27946
180.62703        244.75575        213.27846
181.81823        248.92189        197.27556
180.44191        251.05012        223.69872
182.15890        249.32184        234.38638
181.44599        258.44716        228.05830
180.05122        265.29616        233.74892
178.72836        309.57562        197.96575
180.28005        321.75269        203.79668
181.68365        318.01495        211.66682
179.73783        323.77622        213.59767
178.94603        328.41349        221.21501
182.84134        92.74961        233.83731
183.09243        97.86267        207.50307
186.87743        107.03467        210.91231
183.31128        106.41920        253.77518
183.65335        113.08709        233.57428
183.24764        129.02032        243.91481
183.80862        131.25727        249.21600
184.81220        142.04138        239.48306
183.92699        141.81304        234.06488
187.93595        153.19912        234.59998
183.11005        160.58901        218.82948
183.24385        158.01869        232.29410
183.28469        160.61596        244.51107
188.25233        163.00206        224.79851
186.69927        164.10975        233.88901
186.96084        168.23309        237.84187
182.70156        173.48975        218.75586
183.20908        173.49256        224.29269
182.90238        171.95525        233.64399
189.33722        197.80170        193.01572
183.09566        194.71855        194.05229
183.70889        194.05038        218.76514
186.88079        204.23473        204.32605
183.41133        209.42264        194.28863
185.77540        218.32843        212.29593
186.69224        229.61774        198.18108
188.83375        241.70324        205.29842
186.69415        251.93577        204.82283
183.05033        247.16977        208.80926
182.86847        264.45935        218.68601
189.48666        272.81804        207.60467
186.78290        273.78093        224.03207
184.40207        278.83252        208.37676
183.96101        298.32016        204.30900
187.28995        308.68191        228.32835
185.01252        309.55303        236.38777
183.86104        318.94417        225.99430
181.72658        320.79750        199.03999
188.51697        83.43817        247.31218
185.97131        98.67893        217.00385
188.54019        103.40171        249.11500
190.01859        109.21126        203.72442
187.04159        109.46590        218.77094
192.38405        118.84346        228.39701
189.06213        127.53810        224.52324
190.42888        128.50042        213.17328
195.94217        132.70753        240.72470
190.58257        128.55441        250.81381
188.48912        133.52332        252.62107
188.62999        139.41322        233.30469
191.62321        146.09966        247.34244
187.08350        157.12235        239.13002
188.75745        161.32076        244.50968
188.82661        163.71759        219.03206
190.79590        173.76869        225.68045
190.38918        183.46013        203.89589
191.12970        188.59521        211.17820
187.62241        196.48367        203.42689
188.79482        206.34795        210.61467
188.35768        211.51034        193.79330
188.63872        207.36817        198.71892
188.92285        208.69768        219.44275
189.23996        233.94314        206.70317
188.80467        240.79575        192.10213
188.46731        240.42455        219.11355
189.95562        280.71596        214.65215
189.17148        298.01856        213.47264
188.90517        301.80156        222.58552
188.49753        303.85126        198.39713
185.94877        303.68718        203.72629
188.22949        309.07205        207.55850
188.75934        313.12052        203.94289
188.92218        318.15985        203.38191
188.54906        324.24330        223.32344
194.15781        337.15845        246.97446
197.00570        126.10049        203.99719
196.58805        124.92001        213.12313
194.04945        132.21145        205.52986
194.18757        135.89910        213.67465
195.50275        140.46579        234.14767
193.66666        152.83744        234.19749
196.83539        153.34866        240.65688
193.84348        158.35003        225.60580
195.64482        162.62645        243.56137
196.31818        163.61669        224.17430
196.80209        179.24531        205.37950
197.14964        179.95012        233.88482
196.95786        178.34604        196.23415
194.37457        183.57820        213.68099
193.87741        188.42851        198.33937
197.11613        211.78048        211.19274
194.40179        213.41249        163.67630
194.44778        212.76833        173.59798
193.78217        218.42821        196.53848
194.31372        213.48947        219.88704
194.65073        220.49563        203.82467
194.57053        224.82002        170.39128
200.31640        220.69892        209.89120
197.42129        230.29618        203.90157
198.77632        239.87387        194.63909
195.27957        244.47560        218.52410
196.63567        248.03202        210.99823
194.12479        258.53342        218.90396
194.41077        264.04153        205.30475
193.90881        265.22313        224.73788
196.29961        269.16928        217.01332
194.30419        275.81983        228.69851
195.62728        278.92009        218.45729
197.15751        298.28560        208.01842
194.08134        298.83829        224.16209
192.65691        303.38983        212.97519
200.69049        308.31337        214.25177
192.40872        309.24832        197.86655
196.41588        309.10588        217.85857
193.99698        313.73450        203.75563
194.77695        313.43010        230.50694
192.47074        316.72131        198.50479
192.34342        322.68084        231.09273
198.69275        333.71034        210.20273
194.55538        340.58220        212.60082
194.65347        350.09131        231.13214
196.68974        349.28688        251.93236
193.65463        353.70117        248.72693
196.14962        359.93036        243.61304
198.28919        113.51979        230.03544
200.06272        119.51857        198.48145
198.46466        123.57543        226.50549
199.58266        121.76800        237.75979
201.70587        135.84280        204.27143
197.90516        139.13870        219.32759
198.49912        137.90310        228.20575
202.99125        144.27251        244.87494
198.35691        153.01349        249.19638
198.68004        158.09392        228.79929
198.47722        164.71079        233.98591
197.85062        168.61493        223.76358
201.87769        173.91223        213.28118
198.18801        174.86353        221.10704
197.91549        173.63768        235.98194
198.71278        188.51750        200.08321
198.62602        192.30304        212.12876
198.67917        190.19565        218.48112
196.81333        193.94330        203.85757
203.88180        203.60555        211.16189
203.74355        197.05674        195.13235
198.39392        211.06613        168.48098
198.39066        211.46208        202.25285
200.78692        225.12635        166.73313
199.63209        232.14772        211.74564
198.35335        233.67435        173.52245
198.76286        233.34310        198.27077
198.92233        234.07098        218.67223
198.16791        239.07079        221.47875
198.85562        246.12519        203.58444
205.55426        252.16034        193.39879
198.87053        259.19299        203.78983
198.45230        257.06129        213.94449
198.74547        259.16690        222.32456
199.71534        264.12543        201.47389
207.59341        262.56218        225.92185
198.59424        269.03842        203.67133
196.91526        269.38656        228.38087
199.43827        292.18882        243.63172
199.39757        296.25945        252.68454
201.89678        300.06028        226.86765
197.97330        303.55350        198.89523
198.32823        303.65869        204.17770
202.96023        306.01241        242.12855
198.47911        309.16162        233.65183
198.66431        312.22401        202.05008
198.25025        318.72694        226.30669
198.21178        323.78214        224.29136
198.64948        329.82017        200.28018
198.87427        328.32929        234.19646
198.82950        328.43488        239.48553
198.99021        338.42935        220.67489
198.49332        343.57739        207.52900
198.24471        349.33673        239.31865
205.74945        103.32200        218.73329
205.63934        109.10599        209.18203
206.88405        112.91728        226.03386
206.64946        114.33140        238.04769
203.66527        124.00225        230.34838
207.80164        129.31524        197.83227
203.56519        128.72955        213.11950
204.22540        128.57161        218.88094
204.06097        134.20839        209.07980
203.64087        134.34334        222.93648
204.09051        136.82335        198.55015
208.21353        137.62687        211.49179
203.42175        143.04784        212.93175
205.56339        164.18280        225.50916
204.20990        164.34140        213.25446
205.66342        166.18861        241.64913
203.61937        168.18679        200.40083
204.43377        170.25639        218.28398
207.96588        166.12223        233.88353
206.09591        180.17135        190.17969
206.36129        183.32175        213.65703
204.08266        179.53477        228.16305
204.80479        187.75644        197.68725
202.72146        200.99569        203.81084
204.29899        207.49939        158.11223
203.72829        220.13929        158.33800
205.26165        218.21751        198.83781
202.06868        228.80884        198.43510
203.53696        237.83683        162.47105
204.22255        239.40671        203.67079
206.59167        239.49975        211.23350
204.14259        254.53590        203.68257
203.94205        259.01657        198.45856
206.70641        263.35856        211.78333
203.83980        263.43643        218.24601
204.10310        269.16901        224.36731
208.13749        274.53079        225.62508
207.07223        272.51303        233.55394
204.25944        278.70374        202.08048
201.99433        292.19276        248.46309
203.79375        297.75217        238.85167
203.75952        309.21820        205.71330
203.99893        311.53551        234.20541
204.00950        313.25816        250.29390
203.48049        317.12896        223.76071
204.04322        326.05715        248.55036
207.39571        329.77299        216.63759
204.09650        333.16739        197.93529
204.07779        337.66659        252.82608
203.83183        343.49988        203.83665
203.61104        343.65003        213.05344
203.95598        362.76488        238.08696
212.06401        104.71728        223.48845
211.44822        109.36008        203.72344
208.99866        107.97518        213.48303
211.32766        115.22165        211.13278
212.04531        116.00267        198.40671
211.61065        126.29271        206.84019
210.70548        126.16555        226.38569
208.84021        132.56369        219.09743
206.23831        158.98626        201.41927
213.03602        156.30339        218.33597
209.94441        163.90527        213.82021
211.72869        174.31740        214.63273
209.13564        176.37227        198.49807
209.38669        175.03349        203.92031
209.26642        183.87895        204.36050
209.35553        188.27491        198.80705
208.37382        188.58955        220.08116
212.09383        196.33225        203.88225
207.97622        196.04303        220.27665
210.59288        198.05161        211.26830
207.87294        207.74922        167.85283
212.43017        209.04730        203.84675
209.25676        213.23896        174.30032
211.26842        222.44425        175.79011
209.26074        228.31687        198.80673
209.22830        231.17056        209.81439
209.45054        234.28801        158.57468
217.46838        256.12074        194.99955
208.98870        261.66396        196.66075
208.75325        263.50311        204.04410
208.98157        271.35271        213.38102
207.37722        270.02767        238.87073
209.25143        273.23853        200.08483
210.82668        277.16735        243.28716
209.40734        282.72755        228.48088
209.05630        286.23064        247.62204
211.85729        287.31107        239.41005
212.43671        297.30084        245.41720
208.17720        300.97386        233.60503
211.38675        312.96663        248.77327
207.59501        313.16697        218.97826
208.28232        312.91420        228.51557
209.72190        323.57382        228.82436
217.75243        325.78947        238.00734
210.55603        325.51836        249.02063
209.78823        333.24857        212.14186
209.16931        333.98442        241.71223
208.73131        337.53315        198.81427
208.87416        343.36798        213.48250
210.41674        352.68179        226.56924
211.83784        106.33661        218.61407
214.47136        117.13278        225.32180
212.86077        137.54960        197.84566
213.40655        156.79015        207.77739
216.97178        158.38157        228.46233
213.96196        164.53999        203.26059
214.65066        168.37880        209.24528
213.50307        171.79187        224.51511
216.73425        180.48264        188.86519
216.47249        184.06221        195.41032
214.07527        197.69750        168.39253
212.81232        239.66685        168.05126
215.26402        239.78593        203.71741
213.54996        252.45950        198.33348
215.84485        255.80235        219.45925
213.37027        263.79718        194.17193
213.49941        263.68524        218.38843
213.54169        269.55032        198.59027
216.88101        274.29106        222.12840
212.92681        278.87189        233.86353
216.16209        291.11672        233.98987
216.09621        303.74074        234.04416
215.26106        303.52679        241.98961
216.24254        312.79106        231.01782
213.61418        333.53937        228.06806
213.37404        348.65722        220.63365
211.81929        362.72282        234.01284
219.02730        103.29284        212.90137
218.64157        118.35830        201.38196
218.57032        119.06240        211.37653
217.80222        132.92159        207.25298
223.91668        152.20299        204.18807
220.45236        153.85581        224.52515
219.01803        158.95633        208.21326
220.91694        166.72845        205.00692
219.11316        165.31034        216.94677
218.99757        166.29142        228.49601
217.13725        174.33885        191.06978
218.92604        173.57034        203.79431
218.88800        173.56282        222.46652
218.19838        178.89081        203.41910
219.94391        189.92486        152.04399
218.97295        189.22550        202.26400
231.11711        191.30496        197.89975
220.90332        195.51258        211.64369
218.88785        198.53026        154.88095
219.72742        202.87706        165.84918
221.73920        214.06951        159.17768
218.84067        218.87199        160.31454
221.53176        231.95351        204.05456
218.37720        232.68633        153.65550
220.02289        232.46273        198.69007
221.87160        234.28075        209.28170
218.79424        239.56694        168.37207
218.44732        242.09796        213.45533
219.05106        243.85034        163.60327
218.39070        244.17278        173.58349
218.89966        244.81663        220.39939
215.83372        254.69849        208.74687
218.88302        266.83338        197.92449
223.91606        264.89315        205.41489
218.87798        264.38577        218.35764
218.64879        262.01650        228.87831
217.06083        267.72620        213.17425
226.95172        273.82777        227.10712
218.83415        269.45105        235.11034
219.11138        278.82657        220.39091
223.39489        285.55127        244.36414
224.03916        282.04965        232.51331
220.54662        288.63120        238.96694
218.89140        313.43299        253.91444
221.63854        319.74718        249.97989
218.72428        321.77282        258.31246
219.38511        338.90176        233.37470
222.20184        335.49681        243.22967
218.69084        343.53745        220.59365
219.53960        347.71112        227.77264
223.84963        149.23144        213.29149
226.43492        158.93140        208.22634
224.35768        158.02031        224.12352
226.45293        163.25980        213.83376
222.67777        168.36022        224.26289
223.37638        173.77255        216.90246
224.86430        178.76836        209.45521
227.98643        186.38760        215.48208
223.21373        194.63095        203.72638
223.75155        196.74521        149.47794
227.22123        205.43759        197.84788
222.94694        204.75304        209.06245
222.68685        209.06016        162.33675
222.81176        207.61236        203.76862
223.94279        213.07429        176.20214
222.50475        224.08679        159.33630
223.37865        224.49038        176.31739
224.38849        234.23643        158.46929
224.98603        241.69890        203.78134
224.92762        243.93621        197.49759
224.04732        254.67480        200.09191
227.61629        256.23285        212.99945
224.08809        264.06561        196.44613
223.92615        263.64786        217.00696
222.74696        264.11062        233.84129
222.39161        279.14831        224.23845
224.31894        284.06424        218.65880
226.71300        295.00906        232.97749
224.15776        297.61014        243.24089
227.86875        338.71012        227.99969
226.49523        339.56073        233.70046
223.03362        348.87643        242.91823
224.68568        353.73926        234.02110
231.06692        157.96446        218.83232
231.57459        174.08553        204.70161
228.32511        179.31886        196.43887
231.22726        178.31916        214.55042
229.07349        196.23913        219.93247
231.11537        199.93434        203.87377
230.20445        198.59747        211.37611
230.03553        214.01521        203.90744
232.69299        213.17743        209.09798
229.02891        219.40045        152.67673
229.52628        224.87231        206.24579
228.93372        228.53501        198.27729
228.46041        235.62066        154.59679
227.65858        241.07202        211.13868
228.82883        243.32682        172.07809
228.30948        251.40563        203.60116
227.67221        258.48467        196.35280
233.56336        160.10236        232.43673
239.82959        169.84327        224.91424
233.88006        176.24692        196.84286
235.43115        181.12738        204.16217
234.13604        179.07130        232.07636
231.09112        183.47396        198.96492
234.21598        184.61356        218.87796
233.96329        192.74271        221.16505
232.13543        198.12358        172.05879
234.04950        208.58453        158.48463
234.04034        203.52876        167.96433
233.34171        208.85426        164.14760
231.87904        213.90456        198.62250
234.14530        218.25799        196.82210
233.89717        224.54089        158.42816
234.09895        224.58006        168.00138
234.08763        235.87591        202.57337
234.40909        234.58043        209.12057
231.93666        238.86302        168.48854
236.86982        250.78463        193.15619
234.43446        263.74793        219.08890
233.91145        273.81757        213.90190
233.77863        279.12662        218.68936
230.86857        348.92708        228.95056
241.23323        156.56021        219.34317
244.79146        153.28526        238.92274
243.61975        161.05881        229.27618
241.49631        175.92696        198.22963
241.52563        173.47221        208.35003
241.00737        179.89893        210.26978
239.77032        179.26394        217.09908
239.43159        178.65511        224.22995
240.67959        182.47355        228.37046
242.27588        183.74433        189.85639
238.56039        191.19023        210.57320
237.80762        189.04192        219.99435
246.09594        193.89720        192.90153
238.94400        198.17040        203.48104
242.27696        207.71230        196.48035
240.39207        206.55732        203.86330
239.91422        205.57070        210.76049
241.61596        213.99080        213.47465
241.49431        217.96295        203.71683
242.07734        228.54404        203.68010
242.59437        230.87884        195.78616
237.42526        234.07733        213.48122
239.10097        234.12101        220.00564
238.81114        239.72104        213.29929
237.62066        254.12236        203.61896
239.20248        257.36044        219.22079
238.79906        259.10660        203.59602
240.69518        264.24205        204.44621
240.58911        273.65056        209.26418
241.87177        268.38260        228.37345
244.22560        276.28594        225.84991
249.62362        166.15187        243.54548
243.29842        173.40793        234.15633
247.08216        184.33142        199.24915
243.34978        213.15723        163.69598
243.65755        213.91771        173.57912
243.22122        213.44339        218.68540
241.70483        216.97626        209.09118
241.79761        221.38287        168.27790
241.81372        226.39523        211.09415
244.22867        242.87697        205.44762
245.94991        242.58647        194.22537
245.27337        243.61511        218.20704
246.64554        250.81105        189.45971
245.02471        248.40711        213.24137
246.30105        254.44166        203.91502
247.83887        256.03843        213.96581
243.60943        259.72640        224.51255
247.60766        264.80438        213.46939
244.37061        283.49324        211.31626
248.02641        146.73171        241.58617
248.76781        175.19866        199.39559
248.83517        173.76307        211.84548
248.65713        182.51005        213.87299
250.28051        184.43488        224.96113
248.70482        192.96743        203.65253
248.64760        203.37818        203.62160
248.71808        205.74208        210.70952
248.95563        209.54126        193.60529
252.89349        209.29049        219.30092
248.85939        214.02449        221.26277
252.99090        218.73736        204.81258
251.69942        217.05491        213.19986
250.58709        223.97392        198.14507
249.39968        232.29342        203.77208
248.75301        234.78400        213.80930
249.33218        249.12013        218.54372
251.38750        248.69935        228.54346
246.99141        253.99295        198.82616
249.03856        263.98999        224.60191
251.76470        273.37322        208.33066
249.22514        278.92523        217.11873
255.94707        148.79880        239.71104
254.38682        155.78110        234.11803
254.58265        164.53048        228.28191
256.19856        161.95357        240.59806
251.03255        167.99745        233.84703
255.21852        173.75622        200.21486
256.33495        173.89024        211.96278
254.15066        174.56562        225.26933
252.66393        176.11439        241.25613
254.55452        177.71805        203.55382
254.47476        179.32400        209.20051
254.03967        178.59343        234.16069
256.39748        194.14947        203.95750
254.29446        193.84103        213.85527
254.47067        191.11854        222.40505
256.42852        200.26487        212.49933
256.61233        203.83683        205.69854
257.18612        213.93353        191.52624
254.64506        212.09430        205.45702
253.07135        218.87265        177.83393
257.89741        225.68409        191.51727
255.06249        223.94458        203.24617
254.75144        235.50191        198.32285
255.85152        239.32323        194.17776
257.43005        240.65950        204.71099
255.69049        239.72489        214.69788
255.19324        243.51905        232.66336
256.03991        249.04607        197.94515
256.38844        249.19593        208.37546
254.61340        258.56862        199.79385
254.36217        254.02542        213.48053
252.56539        261.96669        233.57153
255.61136        261.05879        242.10072
255.65432        263.56611        224.41855
252.18684        271.53745        218.67180
261.32407        109.24161        232.10194
258.20923        113.79190        239.38849
265.31706        123.05609        240.18111
258.49323        128.66133        252.76301
259.20529        133.61179        253.93086
258.38878        144.02948        234.02579
258.54416        143.88991        242.75899
260.12969        151.46704        247.86644
258.24114        161.12911        250.23160
259.20260        174.18329        218.45745
258.43677        183.42168        203.73462
259.87807        183.12880        215.99497
267.10675        182.85647        226.83023
258.49860        193.97989        218.90094
258.74608        203.57957        196.07509
261.04709        205.37819        232.65893
263.03834        218.03703        226.33410
260.14484        224.63189        221.18585
258.83722        228.00762        203.28783
257.01684        233.93254        209.35782
260.86710        248.74259        223.09329
258.22153        254.00191        209.29155
258.56262        254.27087        223.91136
260.37156        258.30857        233.95628
260.44586        257.07068        219.55918
262.85723        289.58646        213.07812
263.14796        115.18616        229.20958
264.09000        113.72643        243.14571
263.46826        128.17209        248.56471
264.32934        137.05020        232.07219
263.91158        134.69139        242.29529
264.14038        139.22250        253.90784
264.45569        152.66092        234.28436
264.05633        173.64714        208.81412
266.22168        181.52376        208.92665
264.22362        175.03220        218.80208
268.50543        188.29184        209.18653
264.61712        190.94955        218.54449
268.71706        211.40299        198.25132
265.58378        209.16517        216.26466
263.99783        213.62033        194.44888
263.01994        219.16248        196.69555
263.93375        219.15459        203.91515
265.57355        219.38553        213.54245
262.22136        224.04301        198.45627
263.74454        228.90379        203.87166
261.09962        232.16851        214.99717
263.75327        234.29803        219.15266
263.94380        261.34499        243.34497
263.59778        266.37563        228.22368
271.27121        267.02362        237.34908
264.37964        269.22198        248.58638
264.24602        277.29496        246.55810
264.29718        292.47726        221.36147
263.95880        298.04834        208.85359
264.65347        298.86707        228.02741
263.96915        309.62104        199.87051
263.79604        309.28515        212.05476
274.19031        309.40917        226.22159
264.00800        318.13388        203.38477
265.90467        321.29245        210.35121
271.47272        98.65351        228.60976
266.86069        109.53906        239.91731
271.16656        112.82952        228.34694
269.24216        113.81553        247.33762
270.71097        140.00325        250.15297
269.86154        139.60034        219.26776
269.65942        143.56272        209.28319
271.17857        148.03663        243.35695
269.29809        147.48829        213.71439
269.73993        150.61884        218.72642
271.80715        153.32172        227.15807
267.54109        159.22627        242.49999
275.31617        151.49990        210.21556
269.39909        158.36463        251.06627
269.35159        177.24355        218.33133
269.46463        192.42440        213.90218
276.17779        199.50760        235.19870
268.59461        207.59571        208.27446
269.30423        209.50912        228.70397
270.82139        209.33890        234.45426
268.95294        218.63057        203.93657
273.79684        219.50241        229.60456
270.78774        229.45375        204.77596
270.68117        231.47632        226.95243
271.59485        233.75010        217.66203
274.92408        243.19087        223.78655
271.97249        254.35187        228.94825
273.14543        258.13029        244.41222
268.10936        263.65085        224.85368
269.49002        269.79428        251.05021
268.09205        279.61975        209.61686
271.23819        279.49136        236.53656
269.55220        285.66678        207.45782
274.46542        285.01344        244.95750
270.55341        286.28724        226.84351
269.31409        292.45695        213.02948
269.30841        293.77687        220.17127
269.04272        298.37375        198.49028
269.25113        298.62930        207.66966
275.28197        298.02558        230.57428
273.63611        304.16958        206.07673
269.29385        309.47342        198.60581
271.43777        308.69231        213.10610
272.63802        311.91928        202.59737
273.18579        98.30255        233.97636
273.71440        105.14975        222.36549
276.75044        122.09068        210.96059
274.93302        118.74435        226.19939
272.39938        124.45551        233.34893
272.15772        128.72061        228.88014
274.44576        130.16785        237.74229
273.86099        128.61688        249.02008
273.96237        141.01126        209.17748
273.84891        139.77168        224.21178
276.97247        143.90087        204.08320
273.36295        143.71820        228.56404
273.64630        143.58565        234.15002
273.58563        153.22899        198.41756
271.87508        174.21841        213.82504
274.05986        181.37617        204.25354
274.94449        180.55759        216.59598
274.56282        190.80143        218.84166
273.41138        208.90622        223.75746
273.71542        214.97657        212.91658
273.47482        219.49244        209.11299
273.32544        218.78343        240.78039
274.82965        224.52992        214.51491
274.00888        239.06494        209.06003
273.81113        274.07815        233.40981
279.69345        273.92445        244.36451
273.42919        284.16156        219.02986
273.29196        288.49338        204.03986
279.98737        291.91926        210.74617
273.39473        303.74420        196.56090
274.32923        306.25092        237.97137
275.14474        312.93903        209.15940
273.64979        318.50156        223.26769
274.91069        321.98207        209.99632
281.60014        98.47065        224.56183
278.71346        103.37399        230.95416
278.59125        119.05584        239.37706
279.33350        122.74353        197.84768
278.91748        122.94872        221.17980
280.40347        127.41095        245.52732
280.90142        139.42890        219.01379
279.43371        139.41018        224.11998
283.22145        146.91212        230.00718
279.09881        153.01825        194.75900
279.24975        153.61345        221.14715
278.84296        160.43244        213.31211
279.13976        158.52528        222.52470
279.53114        196.78202        229.66815
280.56224        199.54858        220.68606
278.24424        211.25093        224.04624
278.85889        211.18947        243.49419
278.87680        211.87600        233.83516
279.20795        224.42775        218.63849
280.78970        228.10332        208.11026
279.94834        230.94998        227.90291
277.42775        233.80583        208.09857
278.91083        259.02551        232.07622
278.70722        284.54968        213.55608
278.64914        284.96057        218.60495
278.74653        291.39597        202.27447
279.46255        288.57565        228.63358
279.26297        288.96204        234.14877
278.52173        298.70386        198.46756
277.48497        298.51479        203.67600
279.03113        318.30694        220.32471
282.83109        94.29047        228.67398
286.54425        103.45548        226.59522
285.15154        113.24282        203.50711
284.60965        114.22541        218.90372
285.15742        117.81400        250.33763
285.57777        127.35108        201.60359
287.54902        124.53819        210.71644
284.08365        128.66641        234.28313
282.86655        134.24959        224.34692
282.84961        136.02576        247.25619
284.53656        143.62543        198.45279
284.36395        143.94788        203.85498
284.56316        153.60486        198.48609
283.59415        159.67311        200.31279
284.35286        198.37845        244.73173
282.82535        203.66664        228.09893
286.77416        212.14903        243.96483
283.74244        213.36063        227.25866
284.60238        213.48239        233.73050
282.81424        228.43238        217.50534
285.20720        233.57589        216.05566
284.99468        239.38353        209.41654
284.32955        259.70883        232.50221
283.96060        263.25430        241.34624
283.60301        273.74043        232.94644
287.14548        285.41070        249.29474
284.93950        285.84482        233.57594
284.27743        294.00894        218.93178
286.63314        298.07107        227.04121
282.91138        304.11779        231.92250
288.66306        94.79940        229.02054
288.44683        93.22652        236.11091
288.96881        112.93752        209.25915
288.50289        136.41253        229.66797
287.96732        148.99374        204.09157
288.46233        151.21502        236.04386
290.10877        199.48164        233.35999
296.77957        217.87149        240.43056
286.91391        290.48041        222.47638
288.97620        298.19345        248.94760
294.90110        305.53889        207.03188
293.18514        302.37480        238.18033
296.78083        100.11195        243.30788
293.79700        109.39302        248.77850
293.72488        118.38588        205.75248
292.34361        118.69804        217.00504
294.45880        123.84407        243.81461
293.82452        124.30490        248.81596
292.92896        141.75286        222.12323
296.13574        143.29212        231.22332
295.67363        146.15765        211.44574
292.77495        143.28337        238.04248
296.22185        149.02582        198.50973
293.86337        148.60646        203.57793
294.77612        148.97520        224.09453
294.34958        158.08245        198.50520
293.80803        196.51782        242.12363
295.94180        209.53797        247.85174
292.52864        278.94867        231.88041
296.13371        278.58058        253.22425
293.67242        292.11116        237.88038
296.49474        296.62009        247.77770
294.15014        307.70738        254.11857
296.49811        112.15553        232.81860
296.71433        113.33001        239.31866
298.59736        112.26976        251.28590
296.85846        143.81875        199.79966
298.79471        153.34297        203.15439
296.47905        153.36582        227.90020
297.20824        157.74243        212.91282
301.51832        203.76735        242.82223
301.94893        216.06561        219.20612
298.06836        219.15262        209.34353
302.33130        223.05169        208.56172
298.23120        221.16372        252.76180
298.56720        283.99210        243.23290
298.57320        287.10954        250.09743
299.36401        283.29982        258.32048
298.34456        289.53706        236.29687
298.00516        293.71561        204.04103
297.88040        295.73108        213.38953
298.62226        299.77254        196.14184
299.63503        298.24199        219.58379
297.87952        298.61859        232.25513
300.53246        305.56878        252.71711
302.04309        310.58539        215.95747
303.47125        103.47720        239.47041
303.64765        139.66859        222.62044
303.15729        143.28987        219.04733
304.03863        143.95886        226.89041
303.20945        153.06163        200.32154
303.17804        203.41442        234.09968
306.33971        213.24533        213.67927
308.85087        213.96771        238.58905
303.80829        220.20796        198.40004
303.38158        219.52077        227.94130
305.34502        227.16037        222.05440
304.14273        228.95779        198.25011
303.89761        237.49338        209.21117
304.90493        284.52124        239.46659
304.85257        294.03066        249.08639
303.63516        296.78570        224.31039
303.43418        298.29524        241.58547
302.66804        307.55471        247.84082
307.38497        327.83770        244.83754
308.17366        142.51828        210.60409
311.48718        198.66457        232.48960
309.48950        204.19492        232.07160
312.93879        202.41758        243.67667
310.39993        203.82758        253.36618
313.29106        210.73914        249.81227
309.32483        213.41214        205.60610
313.32401        218.83520        208.98041
308.53406        218.92564        218.52956
309.00958        222.78133        209.54743
310.14957        229.25387        197.57518
309.00131        232.27800        203.90161
308.92874        233.54538        208.85098
309.75238        239.21496        209.73027
307.44276        282.63627        234.19674
311.63864        293.81270        226.57196
311.59928        293.29026        233.37824
307.39704        308.66391        204.16795
308.11723        315.36582        233.99045
308.62711        323.54227        248.39800
313.02018        194.31231        253.77911
313.60667        212.51285        211.84160
313.04255        209.34126        218.97894
314.76748        219.17034        228.36743
313.04266        222.74707        218.26998
315.30513        228.19151        232.02089
313.36670        228.87441        207.66879
313.60260        239.62298        198.28835
313.38705        287.36212        227.13209
312.90866        288.90736        244.65248
311.84724        313.91176        239.01361
318.61355        195.88735        246.90625
322.07318        203.40388        239.02192
319.21092        214.87504        220.64593
318.70459        218.90309        224.32539
319.95535        225.68113        198.99771
318.48540        226.20828        203.93904
318.65972        224.39997        220.57749
318.81695        232.50343        209.21053
318.78369        239.22041        199.03386
318.47258        238.38065        226.35679
317.09700        241.60244        213.72323
321.03392        289.07525        240.21268
319.04009        296.51527        223.49466
318.40784        303.18197        230.96228
317.67266        310.16306        228.18757
323.78922        189.31408        239.04353
324.27425        199.76699        252.76980
324.76445        203.80471        205.11418
324.45595        203.27773        231.84119
322.75368        208.82008        237.56040
325.48877        212.31272        248.44130
323.64633        213.66821        228.33930
324.11178        217.04523        224.31166
323.61897        229.78547        219.49406
324.61166        233.98993        203.37793
323.93420        235.77747        213.31585
322.58928        233.39644        224.67077
324.88270        240.23521        201.32682
321.09687        237.98312        209.31984
322.21501        308.96130        224.54252
322.40452        318.20081        228.59123
322.73402        322.47559        233.50943
329.41592        186.04520        229.47085
331.50970        189.64249        243.24677
329.96677        200.77229        248.92668
329.95211        205.02755        215.89257
331.48883        212.02501        199.11248
328.93708        211.72365        243.74074
328.83304        219.05054        227.85140
328.22293        224.96146        220.34213
329.99920        237.59188        218.76717
332.24606        236.50843        221.97510
328.26794        290.61082        229.93323
326.99996        309.00506        231.94137
326.79669        313.82693        234.00196
334.08346        183.01587        233.58269
333.50112        188.80015        228.33849
331.76632        193.88862        239.03395
333.26858        202.95300        242.30637
335.58102        212.51036        211.28925
331.97139        209.66748        239.72331
333.23670        211.76998        218.66759
