105.27310        171.00386        150.83980
115.68334        185.67169        161.10507
120.58495        141.48750        145.48664
125.60656        163.59033        183.16203
120.97872        169.68330        171.09206
121.32193        181.60039        136.40332
126.57903        150.90439        131.40459
125.53893        161.80701        136.55608
129.33674        160.89250        166.30057
126.42210        161.42452        175.31069
125.58822        166.23470        146.99916
128.63704        166.24406        171.74586
125.50608        171.52232        161.31155
126.03713        176.64780        141.44974
126.06103        175.13613        146.81277
127.00453        179.56392        170.07916
131.65263        155.92638        199.68332
132.14943        161.03013        157.79751
133.31191        161.42804        199.15259
134.88777        166.28752        132.11936
131.83887        171.46089        155.85407
131.67840        178.75531        131.31902
133.82527        176.86227        136.57579
131.12753        177.65704        154.28318
131.15285        172.87037        176.69931
139.25096        151.02290        191.30320
136.16393        161.84959        150.78243
140.28832        165.49338        163.81659
135.29065        161.29039        184.07239
136.45108        161.43973        192.85625
136.57180        159.30649        177.25217
135.88305        172.93619        148.86686
136.37351        171.42607        199.55077
134.45101        169.85913        208.27190
134.73299        175.37868        141.67771
136.47523        176.82228        161.02232
142.05155        133.14410        165.88723
141.84538        147.33262        201.11667
146.11025        160.93639        132.89774
138.65186        163.01947        145.52832
143.21411        161.19321        195.01819
141.58525        159.50517        212.21390
141.26231        166.51300        141.82182
149.27332        172.03539        182.97741
141.57305        174.59093        195.29049
141.60074        171.80087        219.27043
144.15861        174.59316        131.58174
141.34801        176.57060        185.59047
143.01864        177.60832        207.28872
146.49212        182.46567        184.57407
146.54784        133.59643        161.56784
147.09425        156.04550        185.33585
148.65403        161.18273        183.94895
146.30433        164.66435        201.18335
146.90631        161.13190        206.32924
148.51533        176.25716        123.36404
148.88065        180.89244        196.04931
148.11272        175.82141        215.71963
145.85254        191.22253        170.36910
149.54928        191.00766        202.10449
149.15648        189.26996        211.30386
145.54248        205.40345        166.60808
146.57208        204.02176        206.20404
151.19930        121.32196        136.40340
155.75069        128.14184        172.46447
154.61564        132.44310        132.68209
155.14276        131.12754        154.28319
150.25921        147.46790        184.52451
155.04616        146.08800        195.39964
150.65642        156.40413        170.02593
151.01680        155.56676        191.18832
150.58507        167.33233        211.31193
150.88165        166.72218        123.42737
149.16523        164.70893        150.74463
152.81266        166.55155        183.81731
150.88760        170.59988        127.90582
151.41330        171.65650        154.71798
152.63554        180.29569        131.53262
151.36772        185.46650        138.91918
150.91932        194.40264        192.87689
150.90439        206.21675        131.40457
156.15227        126.03713        141.44971
157.42127        134.73299        141.67765
159.78973        135.68010        148.23651
155.97731        136.47522        161.02226
155.44782        136.34195        210.04400
158.24076        143.82435        131.47715
156.22917        141.34798        185.59035
157.16121        144.28313        205.97432
156.42422        147.19670        215.41844
156.54489        150.26477        122.49085
155.52669        156.31029        127.97209
156.48700        155.55796        141.34720
157.92213        156.21423        146.44566
156.17532        155.72156        155.93103
160.99277        149.34205        183.30697
155.36179        161.60364        136.21793
158.49862        166.32832        144.54466
156.38290        165.84015        160.77706
155.82332        174.20042        141.71257
157.44938        171.33723        150.66828
157.93331        168.48651        155.74947
156.18945        171.66948        191.04703
156.21419        174.87774        146.44563
156.19899        176.66614        191.67245
160.82505        189.88927        169.28186
161.79985        186.12842        184.60097
155.56681        181.78259        191.18797
155.76531        200.92708        178.17449
155.71960        200.59787        198.17261
160.93506        201.47438        159.35154
157.53818        215.56461        171.58235
161.79188        105.27311        150.83978
158.17779        125.97692        146.85477
161.27760        125.50610        161.31169
161.33806        131.83893        155.85414
159.39906        136.26247        180.06357
161.37386        136.37345        199.55068
162.89899        135.01861        209.97805
160.99872        141.60069        219.27026
162.19994        150.88760        127.90578
165.46748        150.58508        211.31195
164.31336        157.93330        155.74947
161.13036        156.18951        191.04704
160.64488        160.04752        130.82230
165.85533        161.13963        136.55888
161.22255        161.72200        161.45795
156.99861        161.11412        176.84315
161.13967        166.94380        136.55900
159.76896        166.70408        151.19909
161.72189        171.57719        161.45792
161.60365        177.43798        136.21802
161.17549        181.63916        161.22672
160.71866        187.71140        132.51079
162.91629        188.95569        196.20691
160.92076        189.79605        126.05134
160.61903        190.80307        205.06300
159.72194        190.74327        213.86471
158.15015        196.39773        177.33146
161.17826        196.90056        182.87874
161.37025        197.50754        198.48173
163.18880        207.24026        135.27170
165.64734        208.75312        171.95179
168.68508        124.65010        182.32472
166.56511        125.58837        146.99919
166.55563        128.63696        171.74580
166.36268        135.55112        133.63917
168.57107        140.25138        165.01583
172.67369        136.19026        180.87648
166.28659        141.26228        141.82191
169.27000        144.70697        201.35099
166.07765        150.88171        123.42738
168.09077        149.16534        150.74460
166.24789        152.81266        183.81737
166.47134        158.49865        144.54470
166.95962        156.38298        160.77712
166.09564        159.76895        151.19902
166.39964        166.39967        141.25816
166.22361        174.18463        143.06091
166.93893        173.64333        155.90842
169.41315        173.21469        166.32844
166.24172        181.94760        141.64403
163.37506        182.17765        156.07639
166.89647        181.37296        185.41393
168.12924        182.52727        211.75361
166.60707        185.67026        200.96295
166.28752        197.91184        132.11932
166.11659        195.88054        141.73805
165.87545        209.71928        181.21766
166.49506        207.87019        148.93026
171.95404        106.29327        150.88198
170.36922        105.32012        156.01023
171.73266        131.40820        158.74458
171.37535        126.42210        175.31058
171.55594        134.41343        201.11769
170.95007        136.16397        150.78252
171.36017        136.45106        192.85619
169.78007        138.65196        145.52846
171.35528        149.01887        134.09416
171.61705        148.65405        183.94897
173.09712        146.71677        192.72801
171.66777        146.90629        206.32922
171.08853        150.61945        156.01593
171.62408        151.16057        161.22681
171.60374        156.17221        176.87123
171.76374        165.46446        136.41502
175.04789        161.47392        150.63876
171.07773        161.22258        161.45789
173.73288        168.26283        143.18999
173.03170        166.63466        155.98779
173.21469        163.38646        166.32839
171.57733        171.07781        161.45807
172.08783        176.71084        142.07794
171.33733        175.35039        150.66822
173.69793        177.15208        180.39450
171.66942        176.61038        191.04694
172.13826        181.95777        126.71591
171.65644        181.38576        154.71792
171.24918        186.21066        136.47414
169.24552        185.65785        164.58596
171.65893        185.62986        201.94388
176.82104        188.33045        195.51567
171.09409        194.59796        155.98180
171.42597        196.42636        199.55077
169.85914        198.34852        208.27182
171.46106        200.96008        155.85399
173.72607        130.81932        166.08275
173.78317        130.92273        186.28083
177.07990        132.20167        198.17256
176.75432        147.09417        185.33579
176.39539        150.65645        170.02592
176.48944        155.52661        127.97204
177.24200        156.48686        141.34717
176.58551        157.92210        146.44557
176.82579        157.59218        179.83046
176.60092        156.13382        191.67247
176.61031        161.13033        191.04688
177.43792        171.19627        136.21799
176.62759        171.60359        176.87103
178.73759        178.57852        131.55521
174.87777        176.58557        146.44559
175.82141        184.68705        215.71956
175.92072        189.75409        129.30860
177.82370        190.14278        207.72587
173.99194        194.49071        176.56747
176.57062        191.45184        185.59041
173.26264        196.88842        148.74237
176.82211        196.32431        161.02226
178.94269        200.92552        131.39323
176.17999        198.78315        141.17355
177.65697        201.67217        154.28313
176.64758        206.76260        141.44955
175.13627        206.73868        146.81280
178.70364        207.04475        171.55199
182.25464        137.98710        192.92325
181.83407        148.51158        184.61030
180.16430        152.50410        131.53253
182.17609        152.40200        195.97193
180.11449        155.82862        161.54404
183.28830        162.50607        213.02030
182.00349        161.57078        126.23805
181.38570        161.14267        154.71796
181.94772        166.55783        141.64410
182.17897        170.25652        156.04619
181.37294        165.90323        185.41411
185.29962        171.46018        133.50239
181.63922        171.62414        161.22681
186.38457        167.07924        184.25714
182.14305        176.39537        170.02600
181.78909        190.81935        184.58290
181.60046        211.47778        136.40340
181.55865        225.92728        156.45938
184.70156        136.77030        206.22946
184.55448        141.50665        196.40893
184.03602        145.06608        211.59085
184.20616        150.69533        136.18871
186.03368        156.54005        124.23717
189.99800        157.66532        195.27009
187.79482        158.15627        204.96671
187.15177        161.28066        135.68155
186.49538        168.13536        201.18345
191.34833        171.17214        168.50137
188.95570        169.88348        196.20699
185.89339        171.66777        206.32939
186.81094        176.56397        184.99860
185.46644        181.43129        138.91913
183.85047        184.48611        184.62795
189.25639        184.70225        210.93715
185.61978        196.17384        156.09947
191.30852        120.58494        145.48664
191.09615        135.19918        166.39653
190.81927        151.01076        184.58279
190.76694        156.35582        128.15775
191.45174        156.22926        185.59037
191.19890        160.99875        219.27034
196.13387        171.90479        200.54972
192.83847        181.20247        190.14724
191.76875        183.34227        200.85410
190.57254        220.99837        150.79811
196.32423        155.97736        161.02231
196.88862        160.22562        148.99010
194.89553        161.72293        155.98671
196.42629        161.37381        199.55072
197.91185        166.51213        132.11930
195.88062        166.68342        141.73801
201.55672        172.14943        160.28570
196.49737        174.05517        180.05967
196.02924        184.70154        206.22945
202.05595        152.68228        128.52224
201.43343        154.62711        155.77145
199.73391        155.82521        136.30923
198.78314        156.61971        141.17361
200.96016        161.33817        155.85408
198.91623        162.98173        206.56568
206.61267        169.83822        183.29577
201.24590        189.37954        209.55780
207.28695        146.83096        157.73846
204.93859        151.36797        166.81752
206.76265        156.15204        141.44957
206.73874        157.66348        146.81290
208.16582        154.90400        172.46726
209.27565        169.01654        170.56557
205.13540        159.34761        175.81385
207.55254        169.21248        135.28132
204.02179        186.22696        206.20401
211.47780        151.19934        136.40337
207.87019        166.30471        148.93027
