74.17967        148.76524        122.75013
72.16920        154.77913        112.82090
77.60041        143.07835        133.33901
89.83738        146.12537        164.49842
76.97071        152.94721        128.92998
86.45815        104.81286        168.60162
101.87155        117.82750        118.90006
86.66642        127.08566        150.14121
90.83699        140.46332        134.70276
98.48416        112.62750        151.74691
96.02149        124.70634        177.75944
87.93056        152.69928        169.36959
94.47247        106.16663        162.68345
95.95652        109.92153        169.80226
93.61999        112.90952        158.74776
96.15555        120.05951        171.56543
95.25163        127.98456        143.62220
92.76356        127.79991        154.69271
92.78910        134.94969        153.91100
95.85491        144.05393        145.50683
94.88275        157.63864        178.10375
97.22518        117.34791        185.67841
97.39895        122.66331        143.65939
102.30275        125.41155        184.57987
114.07096        115.71783        140.71886
102.97411        121.09887        154.30951
109.67705        122.16893        127.94707
102.89304        127.47493        128.09727
102.77849        127.90363        137.51100
108.58823        129.85989        162.02743
102.77494        135.19185        135.44531
102.22896        133.12637        147.68685
105.66958        137.41186        158.10504
108.61924        145.15624        155.53917
112.55299        101.10881        159.59547
111.61605        100.47177        169.28783
111.31147        106.89913        152.93482
111.84758        110.19480        160.46861
111.19609        111.67668        172.78807
110.11429        118.28372        123.97475
109.03148        121.17049        183.04757
110.68947        134.43009        145.97363
115.74219        131.89027        185.74681
111.66994        135.90238        133.52020
111.38544        136.27535        180.53157
116.39416        143.18140        115.48583
113.11793        144.78361        145.13246
111.14529        141.12363        169.88546
111.92535        144.74587        179.02446
113.31351        155.49930        169.78227
111.51035        162.62283        152.78614
112.86219        97.10098        177.45988
113.12771        117.74437        158.40219
113.00683        121.89397        176.75978
119.14845        131.69951        110.12364
124.45412        141.36577        160.73589
112.86709        129.23940        174.59404
112.95747        137.83078        152.63583
118.72741        141.82873        195.93184
112.36568        143.44365        128.18653
112.64453        145.09334        135.57448
120.06619        151.55896        145.98632
114.67119        152.85663        179.04855
112.98068        158.48162        149.10336
113.09982        162.80393        162.16247
112.82436        166.53145        158.20824
123.50422        95.40589        160.63181
119.47757        102.02843        147.58690
121.34755        104.48126        169.59422
121.60240        103.93113        157.32903
131.84755        121.53310        161.23457
120.02489        127.93610        119.21804
118.99577        145.22000        174.92350
118.98068        144.73128        185.17632
122.41564        160.92963        131.54165
125.56346        152.62620        136.48666
117.73837        154.38442        162.36486
115.73090        158.04143        178.25519
119.78543        162.90691        161.25047
120.44678        162.49692        167.94614
124.26990        169.67076        163.79391
136.14141        116.21227        185.06484
125.45973        118.52329        170.21176
122.35494        127.62921        146.41377
121.79069        138.04771        176.06299
121.79609        153.03607        137.96677
122.32187        158.20995        160.73329
124.14541        171.90484        124.20226
122.56490        171.75731        147.26186
127.35032        102.97765        143.26958
127.72871        112.93975        143.09809
132.43614        122.85166        144.05890
129.71393        122.56578        153.08641
134.87360        135.18792        137.16499
129.01108        137.81874        128.61680
128.23884        137.75159        146.77555
128.32132        137.99589        197.20104
128.07828        145.44109        127.89248
133.91867        147.68168        195.43418
127.67849        147.41806        122.24284
127.82501        152.82973        122.64029
131.43631        152.99918        186.59234
136.20418        170.12991        141.12164
128.00525        160.78901        168.37876
134.21528        164.22817        194.15573
129.45465        163.00498        113.77389
133.41449        167.86297        117.65450
139.51576        185.03124        118.20085
131.63841        112.37138        146.79251
135.47922        118.78531        169.60577
133.50734        122.75243        137.45128
135.39949        122.18520        177.53001
139.21089        129.52164        131.05252
132.98328        129.66397        152.82974
148.32180        132.90084        186.94659
135.07611        135.60767        119.71078
136.60138        145.26016        134.42086
135.76191        144.32071        144.75851
132.36748        145.59707        187.90015
136.23532        149.06405        169.97413
132.80919        153.18447        122.18378
137.40605        161.99964        159.54692
134.37203        163.77384        167.97330
135.91232        170.52582        160.64874
143.16306        137.36738        165.81458
137.81667        137.81585        145.17303
145.06123        143.50545        148.12532
139.69773        145.73350        127.78818
140.40549        152.89052        148.26879
150.56582        162.86833        158.52519
143.64136        170.22458        134.42090
137.12128        167.85884        188.17690
137.88083        178.30470        125.78131
144.14244        184.68471        131.43587
137.32335        191.90328        186.65560
145.65674        111.92204        180.03361
142.81733        113.13801        191.17328
144.40464        121.21071        159.27270
146.41107        117.84474        169.80597
142.73603        120.12595        178.01812
143.27333        125.03974        167.63489
142.81243        143.16883        122.84177
145.82775        146.18021        159.54048
144.03350        147.75306        171.28276
146.19034        146.76053        132.11137
144.32373        149.34674        118.00744
143.45985        151.87033        179.78085
142.53299        162.92888        137.38684
141.09262        162.88779        142.89212
145.61691        168.99031        198.59671
146.28192        169.50299        144.58847
145.19978        177.77892        157.25631
143.26172        183.07447        156.57844
142.80232        185.59867        138.27687
143.65060        187.43736        152.71387
143.34998        197.49592        210.93087
146.17994        202.06353        178.21055
146.93425        203.04111        183.38628
150.49243        112.71247        171.03600
147.97999        121.66089        177.80521
148.97228        127.64171        159.82725
147.28189        145.09915        183.38281
149.42705        147.82829        178.00157
147.16699        156.26985        122.75095
150.16952        153.00662        127.90569
147.10741        153.02804        132.87958
147.35822        158.09898        127.89822
148.66448        160.57317        134.20645
147.20758        165.34455        122.45885
147.87599        166.38385        128.07939
151.78755        172.45630        109.77234
148.72800        172.35959        172.64039
147.33399        178.14004        118.32222
150.16955        178.29070        138.03379
147.09950        183.08201        152.71798
160.07059        172.00365        193.46518
158.04134        184.87737        143.34661
147.58981        197.81769        187.26680
147.15630        202.95792        194.48430
147.81935        202.62760        215.28171
151.58968        202.62608        226.24968
150.69396        208.88148        185.15235
147.33886        208.24911        194.43861
147.32193        209.98185        210.95850
152.54163        106.54177        179.24699
154.90503        112.60409        157.63545
152.91600        117.96201        177.72304
152.60092        116.07632        183.42431
153.17197        122.03613        174.35911
155.53502        127.78320        147.40810
152.90265        127.77413        153.37702
152.85611        127.89005        167.61361
157.64061        138.13703        145.46017
152.45942        133.21989        153.10459
150.15698        133.37022        158.40863
153.64642        135.46320        165.51724
153.08825        144.45271        130.55021
152.81110        143.01343        167.84011
154.67994        145.15702        186.50085
160.78887        146.05792        136.51935
153.12684        147.57641        172.50438
152.44710        152.50215        122.78223
157.53469        157.22246        152.22544
152.69655        153.15357        158.38095
153.09639        156.55936        163.00190
152.58850        162.88049        126.73141
153.10434        165.43901        152.42580
152.28060        168.88144        134.74853
152.40564        172.20525        122.49492
152.44633        172.48022        127.89592
152.23935        172.41119        187.75441
152.84220        177.89394        118.27114
152.72157        180.61269        145.33305
153.30137        180.44899        156.94801
152.59225        178.04339        188.12063
152.72199        186.27327        109.95575
152.74266        187.84552        120.25547
157.14491        198.11892        118.32733
153.19373        192.61578        212.42183
156.93351        195.78632        218.75232
153.00117        201.62041        186.66953
156.97742        197.40417        192.83987
153.70378        202.30258        203.92027
153.18394        202.97188        197.41403
160.54995        212.55543        196.47599
155.49264        211.27373        210.15201
152.74062        210.30229        221.60798
160.21397        112.87792        175.23501
161.16692        120.52746        149.36942
156.64707        116.49969        162.90349
157.17656        122.51934        157.79184
165.74725        130.47282        169.97545
158.13861        127.88306        154.76335
159.27644        133.19173        154.86326
159.75190        134.67254        178.21242
165.62874        153.81519        210.97633
162.23860        153.37561        203.00104
161.86002        161.69222        115.08040
159.56733        162.84016        186.98538
158.12931        169.24265        109.52587
160.64955        170.87748        121.47965
160.58393        168.66314        152.11930
161.34460        165.61928        158.37220
164.01815        172.12444        108.17584
160.58404        170.53550        137.22946
161.08842        180.63814        118.43218
161.66438        177.81910        180.16574
159.80607        183.41208        108.65593
157.49375        183.81767        131.29934
159.83884        187.49699        217.29825
161.08964        198.75719        167.81519
167.24628        193.63349        129.73053
158.12812        197.80442        177.44870
164.14826        200.33314        233.31490
160.71171        202.82506        127.64396
160.60787        203.08228        152.93471
161.45881        202.77121        159.55240
160.37623        202.57955        184.66811
158.26657        205.74218        197.54293
158.52897        202.85991        226.39123
165.34169        206.45651        124.36717
160.85212        209.54044        135.16070
162.07512        138.66373        151.99370
162.47471        147.72146        210.31230
168.64321        162.56102        133.47804
171.69275        171.96493        163.64477
166.18772        177.80899        128.25796
163.01181        182.83818        163.84127
163.20588        188.06347        212.42407
167.73744        195.56926        152.58970
164.38630        194.58402        187.84536
166.77340        201.64403        134.79394
162.49279        197.65203        208.18398
162.52491        203.46852        193.17518
162.39078        203.24059        212.69445
162.43124        202.73792        222.35713
163.02783        208.80755        142.74805
167.81793        206.58427        163.09025
162.51471        210.54275        212.68101
163.28131        211.37552        220.21221
169.39742        214.43390        226.30991
166.55230        107.91989        183.16732
169.90169        120.76128        148.73013
177.28418        121.08499        160.51644
168.68100        129.55588        183.54245
175.33039        141.64735        189.52131
168.11206        142.76046        167.66988
169.76361        154.60029        153.01782
171.29916        152.16255        159.96317
171.28383        148.18522        229.01456
169.84287        155.59235        170.34737
170.34541        152.85986        202.83138
178.89311        151.68613        204.84216
166.29805        157.97432        203.23387
170.48922        166.22951        115.98102
168.84502        162.70537        178.02188
170.72474        169.29101        143.51335
168.66264        167.54069        168.35094
169.92933        170.33042        177.98145
179.20492        168.77271        220.91435
168.07317        182.00963        108.72253
169.60386        179.31399        135.88437
169.10622        179.09086        176.07081
170.12484        185.58225        146.16156
171.01078        181.74368        153.09149
170.15055        184.52228        159.42715
169.59116        185.26434        167.85387
170.57671        189.03022        205.98407
168.06572        183.62635        222.08547
167.40477        186.79214        120.59960
167.96516        187.58309        218.64103
167.85536        195.05417        224.24848
168.23125        197.40263        117.81787
168.68945        202.85335        149.78784
168.01629        203.23121        213.12675
172.86953        211.30933        140.53620
166.27081        205.03430        187.87875
167.76702        209.44459        202.86448
171.38966        209.82381        214.05735
175.17136        112.83135        162.61686
175.80601        112.34838        201.83844
177.14899        122.09261        169.07245
172.33682        126.81802        159.29320
172.54153        127.48888        147.58721
172.91696        127.73950        152.92247
172.13243        131.08123        187.24333
174.26450        133.09780        152.54345
176.60969        134.17582        177.16500
172.31806        142.85478        173.95971
177.47512        147.63135        224.80048
172.43576        147.64583        164.63714
172.53435        154.40482        143.22564
172.58975        152.82105        183.95591
172.27747        158.00058        147.63343
172.11775        158.05085        179.84764
172.84134        162.31427        151.41376
171.92744        162.49865        168.15427
176.43371        162.87514        227.69835
176.92571        171.86030        136.22179
172.54259        179.77090        112.77008
176.08579        179.51038        145.30695
172.99783        177.73290        227.55941
186.10600        184.73028        207.93392
172.03303        193.51608        118.32861
172.64921        195.98260        136.12647
172.38388        197.05627        122.29287
172.29863        199.91650        143.10041
172.53925        203.24039        201.06016
178.52229        204.91151        206.78076
172.75593        228.30663        168.03331
172.70333        235.67497        169.64597
175.87952        244.28944        152.92413
172.57019        244.59025        169.00134
173.57911        249.35661        163.02333
189.41437        247.34348        185.64796
177.51372        255.09607        153.82550
176.33840        252.81884        169.76273
182.50666        256.94730        183.33069
178.09408        111.97480        170.96793
178.64156        111.87093        187.36124
177.35280        108.65098        194.21929
178.90264        118.15875        153.21527
180.25323        121.36505        194.45177
177.74888        128.30314        147.41269
180.77720        128.03742        178.08464
177.75068        134.41208        161.21151
177.79264        135.32572        186.06390
185.95582        129.43997        214.19658
177.77272        137.55011        152.27561
184.55571        138.97452        173.89908
177.82293        145.12776        204.50533
179.35476        151.82789        195.32489
178.58624        154.79746        171.42023
180.37093        154.82049        177.98123
189.07115        165.57695        196.73788
178.35742        153.49391        222.77260
178.24366        158.67322        139.06349
177.25469        158.03299        162.38528
179.71095        163.79912        184.02646
178.50561        158.23969        230.61026
185.72968        158.76507        143.95119
185.46126        161.68283        160.57098
177.97711        163.14312        172.93280
177.86463        162.13479        178.26136
177.65601        170.85588        124.85269
177.71126        170.12159        172.73530
177.37279        167.95868        222.37679
177.92982        172.60548        179.80672
177.71973        171.99668        218.02183
178.18853        177.86281        228.59413
178.15901        183.23476        197.49614
177.88364        187.26831        203.50845
178.43518        183.00930        230.57714
178.25675        187.47766        191.15250
177.04709        193.54173        129.90572
178.57879        194.95994        143.09987
178.00360        193.82422        218.28978
178.56282        197.07773        199.52830
181.70342        213.28098        220.82743
181.91539        214.70785        211.54589
183.83117        221.04813        166.74424
178.93723        227.96449        170.21678
178.04889        235.57437        170.14327
184.65095        238.73024        202.04538
182.48164        244.75629        160.63614
182.15940        245.79154        169.95679
181.28414        253.16226        147.54092
183.09283        252.97457        192.85577
177.94288        258.15166        171.05828
180.08450        260.83267        194.88566
177.99415        268.09481        194.97119
178.33423        280.12257        193.14337
187.18536        116.08268        170.34079
186.55395        108.05401        200.66308
183.20495        118.25838        187.46513
183.78895        121.63970        210.01797
183.16400        123.87439        153.25021
192.92377        117.66454        189.02803
183.99614        133.32852        145.95872
183.46783        128.08569        183.26328
183.58190        129.11418        201.30491
183.56379        133.66305        158.18130
183.22848        135.35542        184.85887
191.72712        135.72758        208.50114
183.61761        137.55993        162.66021
183.09965        138.06906        196.71328
188.84627        136.41498        218.87433
184.06316        143.18107        149.13301
183.09917        153.18203        209.64153
192.39357        152.96950        224.42142
186.32972        156.11436        233.71972
183.39455        158.28682        152.96133
185.73167        161.11850        185.71521
183.99132        161.30767        211.63542
186.91395        169.77028        160.57961
185.82162        169.70359        174.60581
183.31457        170.43383        152.26635
185.63700        184.36735        186.57267
185.47281        177.99322        227.95125
185.97218        184.62421        174.68839
186.07744        184.34722        232.00638
180.33914        187.56581        146.72615
185.63337        195.57779        191.98316
186.65089        193.89424        184.67546
183.48521        202.75998        195.64103
186.15882        202.98148        210.21757
185.10596        212.96522        169.41255
184.78262        216.46076        231.78438
191.98308        228.07777        198.14505
184.92792        236.33033        177.68544
186.58560        236.29634        185.41503
184.13164        237.80088        168.90483
184.97084        245.76351        150.47151
185.52253        260.06636        150.56338
183.42524        252.85516        175.42913
184.80555        260.91263        174.86895
185.52534        271.44517        169.40511
183.47704        269.29739        177.66282
187.21188        271.08842        187.40763
182.95589        268.11065        197.68413
186.76581        269.98279        204.69367
187.41628        113.85716        195.92832
193.74921        118.34496        177.69625
185.85416        118.04477        202.75394
187.24335        128.22253        152.92998
188.53666        137.31750        152.88608
194.51329        136.90384        167.54298
187.92767        132.97652        177.44020
187.67108        140.04596        159.61202
189.76146        137.50793        184.13932
198.34415        143.24400        227.29247
187.56309        146.75438        147.89607
193.87915        158.22571        171.43053
195.94773        170.40550        146.60444
194.74814        159.73647        240.05588
187.54519        172.15704        216.30361
192.85401        177.98240        155.55374
188.06437        177.79669        170.51053
187.55947        177.79323        202.94780
203.23003        174.51744        246.71276
188.29199        176.07458        252.77489
188.07875        182.78411        160.54201
192.43186        190.72417        169.33140
188.99863        198.71632        203.14679
193.36262        217.89174        222.27329
191.74571        220.50380        186.52555
187.92343        228.01095        185.55515
192.13633        249.32876        210.58034
192.16463        259.11930        196.85732
188.23960        259.32458        211.32094
189.63386        272.37767        158.86000
193.00621        270.13228        196.12624
194.19783        113.32833        205.90255
193.83505        127.12079        160.51152
195.22401        128.13210        219.33620
196.36938        133.17716        197.66528
198.13190        140.78766        143.04833
194.11784        140.06857        175.74886
196.07020        135.96566        222.55520
192.78808        143.30750        160.58462
197.86662        145.03674        202.71321
195.70936        145.72138        210.24522
193.23728        147.08949        168.61201
193.96671        152.48117        146.31500
193.00536        152.83639        180.55319
195.64186        162.78961        179.75363
192.95722        162.53543        154.98828
193.07525        165.35523        221.96966
196.18394        170.42532        165.37603
193.25583        167.75229        172.54478
192.83024        172.48447        179.44376
192.66012        171.89531        217.65015
193.35245        177.81942        171.96566
195.06578        177.96092        177.63491
202.40301        181.80811        191.04107
192.32925        177.91183        218.46938
195.40999        185.79947        225.55069
196.79051        180.34962        235.91706
196.49522        185.96076        158.12718
192.79941        183.14947        171.75849
195.78859        184.76402        177.98413
194.83475        187.82794        186.72000
195.70095        214.97746        179.93028
195.53334        219.17302        167.75481
196.91638        212.80243        192.59708
195.56526        220.73909        193.96668
197.39690        229.15904        186.80202
194.90252        236.13496        213.05534
194.50745        244.34942        194.88076
193.03577        238.88544        203.02376
192.80942        243.42825        169.69769
193.22158        253.44061        143.70998
193.07618        253.32721        153.26581
193.65083        252.83306        197.36716
192.51741        253.16747        202.29134
193.09216        258.82996        133.22129
197.94109        261.19505        145.08922
194.88782        261.52431        154.34232
196.63326        259.06135        185.64623
200.97782        259.98824        221.15155
198.28505        261.63655        136.25159
193.53452        265.42517        202.74117
196.40564        270.70093        156.18822
194.22216        274.29872        170.39471
205.14911        118.97807        195.74812
202.68930        123.41037        166.84677
199.48696        128.01175        234.45228
197.37153        133.40381        152.58936
200.04062        127.86089        168.54944
197.59453        144.58220        156.95625
197.78670        147.66850        144.54375
197.22648        147.44396        175.13366
201.30854        146.97234        183.98374
201.90547        154.60447        179.73664
195.37911        158.31740        152.83900
198.70228        162.99525        146.30193
196.97804        172.31915        152.86429
201.10679        172.40076        238.19963
197.33618        177.79485        168.22546
196.71453        193.15897        178.12634
200.24051        203.03307        177.98303
197.93619        218.14212        214.50912
197.22449        222.70009        202.82804
202.08098        235.00986        200.01149
201.04539        237.42527        178.31911
197.41392        243.07685        203.29613
197.39621        250.23312        168.53904
201.33039        252.93618        211.75013
200.68712        256.30157        177.93017
197.64908        267.26074        180.42632
207.46029        123.42615        220.06077
206.39194        118.04875        233.67453
202.75120        122.76693        233.19939
205.31056        129.02345        198.73684
202.95976        127.77510        218.83228
202.99203        132.92271        167.62275
202.73856        133.39963        203.21300
203.48541        134.74785        222.29628
205.04565        137.42666        158.52029
204.64059        142.88046        168.05579
208.50416        144.97993        194.37487
206.69799        136.82067        205.26484
206.13156        145.54372        155.52035
202.96208        150.28272        210.93605
203.41180        153.80410        171.13233
209.43904        154.23241        186.94401
202.94527        153.43213        218.24290
202.55294        152.91657        228.37622
205.04422        159.71328        244.99883
207.95942        154.54505        220.19923
203.29539        159.20644        230.06392
208.03692        174.45465        164.17176
204.10205        175.90056        200.31024
201.31531        177.84537        151.61966
202.92497        177.92432        168.43897
209.69944        172.01415        231.34154
202.77808        181.42820        172.34786
206.25189        186.76856        232.97492
202.98591        201.47738        172.90346
203.56720        200.66278        195.37280
215.06092        198.00647        200.74836
203.70281        213.71501        179.67509
206.16911        217.81865        211.30728
204.00818        223.46783        200.13863
203.10975        228.19839        202.24857
202.97866        227.72046        214.12451
202.91754        236.48086        184.81870
204.70445        233.83181        218.27482
202.94427        237.34581        210.46915
203.51698        237.51782        221.75708
209.39459        240.85449        188.53471
203.05711        246.11114        212.35263
201.24420        247.88013        177.51469
203.29368        247.77433        196.98823
207.43000        259.35304        192.66180
202.84934        259.97640        170.69066
203.10597        258.19271        212.10926
206.82754        272.19560        186.10228
214.41196        122.66514        228.61213
211.43802        124.98805        241.38072
211.27747        134.33287        195.34129
208.25085        131.78112        228.14786
210.39837        135.88720        236.09022
211.81931        136.34178        244.63213
213.05671        143.13761        209.64193
211.84565        144.41467        228.51699
208.81391        147.56952        173.83535
212.21279        147.46203        234.54546
214.37870        145.07896        240.92397
208.44655        152.71633        178.21226
207.06086        153.72871        202.25545
214.36705        152.32919        209.79410
206.41567        152.68000        231.75924
206.85868        158.03193        172.51248
207.82607        158.25112        178.14362
208.06343        168.38707        197.52923
214.11846        184.97145        169.00706
209.66679        177.62813        235.60187
211.84655        185.97960        194.51267
211.45935        195.49156        179.43287
207.75076        194.98234        188.01867
211.05974        202.55719        173.90575
212.47517        203.03359        203.79406
211.91577        206.62125        183.43660
211.80946        214.52301        200.70343
211.47376        229.76061        214.68915
209.83393        232.30330        202.97324
211.45904        236.13950        222.38633
209.61821        245.00850        217.14646
208.30881        252.93582        197.47061
221.10147        260.29563        199.57327
208.26571        265.14102        176.58161
212.61690        127.85999        229.26756
212.85272        133.91829        187.58047
220.19137        141.99444        220.54127
211.10093        143.28113        220.29762
213.73138        148.53892        178.19273
213.91531        156.25197        229.40270
214.68322        172.79737        168.09459
212.93036        178.21483        226.38117
212.21721        183.12954        183.16743
214.11384        185.94700        233.18597
212.98070        207.99679        197.76654
213.04519        228.33313        187.94939
210.80268        247.88757        171.98942
212.82224        253.85937        172.60541
213.52835        258.83412        234.38604
215.84419        266.94361        225.01205
220.92922        128.13776        191.51029
226.39333        134.90595        192.70522
218.10033        134.84804        212.74990
218.02094        135.58632        237.26704
217.81874        153.65101        220.48434
217.73981        163.19523        189.20032
222.30177        169.74218        236.05682
219.69884        172.52463        254.59235
222.34638        182.25236        184.95697
217.20524        179.94805        228.44999
220.39869        177.52560        250.53464
223.32217        179.50929        236.48572
216.31715        183.60133        237.87290
217.92040        181.99012        245.07313
221.81415        194.06062        177.58226
220.89565        195.39507        183.74329
221.95671        202.55935        174.70624
221.19578        211.58777        204.95675
220.09555        214.77119        176.80599
218.18458        217.78704        203.11144
217.63441        225.76765        172.63456
220.25415        228.58684        187.12511
230.87399        235.05355        193.65206
227.02978        242.58761        221.88582
221.29766        236.44153        228.16941
220.53920        252.66651        175.30091
220.32926        252.64133        227.60441
217.38577        252.96508        233.88058
222.42918        260.48073        220.43445
217.95385        255.31137        222.18900
221.92549        127.46117        223.05282
224.37859        132.54351        228.62936
222.20081        138.16348        208.50127
225.06984        142.76752        202.87210
221.84915        142.73472        213.10781
221.77735        173.73979        163.17547
222.67814        172.11935        183.11515
224.39615        172.37641        245.29441
226.38173        185.89757        177.44118
222.82437        216.44508        183.04456
228.14615        217.20538        203.94985
222.40749        222.72252        187.77623
225.05769        233.79644        202.92134
222.99342        231.70191        172.30631
222.73707        237.48835        163.16445
222.90851        238.18662        178.49542
222.64184        245.37290        178.20470
231.34390        249.43564        177.83179
224.52455        262.77199        234.49944
227.53386        178.28490        176.47681
227.72725        194.06842        186.49196
227.91388        202.07156        201.99218
228.01503        202.92569        183.45334
227.61802        210.03648        170.51150
233.18428        218.99577        180.20336
233.67148        210.95702        184.87232
228.62921        213.20428        197.23355
228.13156        218.07240        172.54624
227.85684        216.18831        182.99516
228.12713        219.33675        195.39235
227.33734        217.72864        222.19892
227.74826        227.09385        217.44066
227.64561        235.38959        158.58635
227.85598        233.70353        168.67601
226.11950        233.94843        178.58389
227.90904        233.52173        213.10255
228.95173        237.69516        227.53566
227.87208        245.85635        186.40366
227.92146        247.18914        178.11222
229.73861        254.28511        177.95950
235.29769        184.45272        184.03651
243.82222        211.42054        183.78037
238.28091        204.46981        177.92716
230.63077        207.58208        216.75129
233.46212        219.51191        194.44393
238.59775        233.26680        157.15189
234.95754        235.70238        167.78661
234.59192        236.96765        202.88705
233.38164        239.55552        162.98608
232.97566        242.92140        197.27095
232.91454        247.32907        193.58055
236.64873        245.94496        211.08053
232.63122        259.54808        178.24827
238.18072        168.00935        157.05179
237.79633        193.26774        192.75943
237.87467        197.44385        177.88744
236.46384        202.94570        168.69079
245.62447        221.34805        169.73494
238.03373        222.68606        193.11865
237.79082        227.70270        168.37018
237.65720        233.39575        172.53743
244.68020        236.45709        178.63914
237.43951        235.96857        208.40789
238.03548        237.97017        176.24834
238.91192        246.75046        161.45716
239.85897        243.06211        201.85975
239.82346        244.55441        148.20618
244.10439        186.85031        188.88625
245.52108        195.40928        187.03466
245.34583        196.24072        178.22180
245.29466        225.00901        194.72957
241.27240        221.82510        226.54685
246.08850        232.86051        168.37181
246.87796        226.08565        204.48493
246.11278        232.86089        190.16669
242.91319        233.34362        207.89330
241.27295        238.01378        212.77496
245.25199        243.19604        161.49416
244.63295        243.52713        171.48455
248.29445        211.61032        193.89872
247.64267        217.97215        195.85087
247.07464        217.15919        212.78226
247.69356        230.07982        182.81653
257.15324        248.32683        182.53476
247.02636        252.34645        158.55269
253.05633        210.07707        194.68247
252.77835        222.33650        190.58239
252.93934        220.73985        201.26176
253.01407        234.10640        181.43755
252.84330        228.14092        187.00338
253.54301        236.26007        195.18405
252.80068        237.75306        172.73125
253.28471        242.92738        172.90136
253.34946        252.45532        178.15222
259.34756        212.93914        190.52284
259.78098        219.95766        188.25328
262.10547        225.37679        198.42672
260.37923        227.93858        187.71367
258.08117        235.87081        172.91023
260.17790        236.52079        183.80347
256.99895        258.19522        187.67569
266.57990        226.35149        184.86661
