113.19980        190.77427        267.81874
113.65219        194.45483        215.94469
109.59738        195.14902        235.56125
110.20737        203.41756        230.44502
111.07143        209.83842        274.94180
109.71835        210.64126        286.24673
111.07365        214.68843        204.84451
109.65566        215.19168        213.12226
108.86609        223.72099        199.75662
113.71212        140.34843        225.88660
115.65121        145.24232        215.06114
117.35453        146.46804        232.34221
114.53643        152.51841        225.23595
116.77061        162.32603        219.42197
113.60211        158.72056        228.50626
115.08002        167.19367        229.45507
114.51808        169.78758        242.02369
113.95255        171.15753        252.68863
115.87078        200.37100        283.48358
112.84226        202.52432        279.64123
118.15198        212.12455        179.84318
113.06176        209.71719        204.01401
114.47672        210.26611        279.50073
114.66824        215.07622        185.23694
117.24418        222.99965        220.33698
116.52367        227.38455        187.12236
119.52141        146.20131        219.82558
125.09818        152.22410        227.41578
122.89451        154.24731        261.50346
122.10640        159.68507        250.15398
119.97533        168.60276        234.16979
119.51408        168.95340        245.26109
119.93479        172.31580        252.03852
118.94461        196.86837        227.55198
120.71958        194.10439        277.20051
119.69997        201.19139        189.28622
119.69091        204.96146        185.38473
119.59960        207.47766        214.78266
124.60478        205.05630        256.22831
119.68911        209.86725        196.82848
120.03790        210.18576        210.28343
119.99058        214.67902        240.62086
119.97189        214.75575        269.60526
120.92315        221.54117        194.37712
119.95215        220.08768        238.57547
117.70113        229.75902        214.70938
127.35024        149.82581        219.98845
130.01650        175.89646        195.29129
128.50105        178.87148        202.88102
129.35402        184.53357        208.82504
128.42630        192.88495        241.89085
127.63242        194.32543        279.78471
124.46321        204.29778        191.95609
125.51006        201.72962        225.50143
124.57805        197.53458        234.78493
124.33694        210.09093        190.39699
124.48692        209.91000        199.71402
124.48669        215.07175        188.30638
127.58317        211.43776        234.46674
124.74637        214.83313        243.41138
127.45115        217.35609        164.62523
127.04568        219.78425        189.49057
125.70584        220.74405        234.78859
124.68359        218.40697        267.89792
125.85556        220.28792        274.74289
124.36662        225.85851        228.61063
131.45774        230.18150        228.36514
124.31910        265.72632        208.82630
130.59505        135.36359        210.95723
129.62894        138.46861        199.75948
133.71660        140.41171        211.53253
130.29187        148.46140        203.23539
128.50567        149.15702        235.60052
129.56097        149.95901        215.13589
132.90564        153.07505        220.68777
128.69788        156.58170        235.18521
129.74245        153.86010        257.87411
128.39078        159.62244        185.04648
129.39102        160.59308        256.74402
129.82799        168.56957        213.89761
129.37270        181.22654        238.32241
143.89897        188.35824        195.88284
129.51851        189.20543        195.06403
129.52870        190.25893        200.04634
129.59512        190.05661        264.90295
129.80183        193.21143        179.67780
129.96089        195.04428        210.21959
129.40192        196.06711        224.86499
138.69426        194.78305        268.79476
129.60042        200.13431        205.97625
132.06437        200.75378        215.80977
132.16942        200.40251        234.73422
129.69698        200.23802        240.11716
129.67564        204.99714        243.14663
128.62549        206.16078        265.05080
132.71311        214.43807        173.26430
129.45253        208.05535        272.75813
135.36514        222.57344        168.13740
130.37062        220.12077        230.67268
130.30540        224.36122        281.82437
130.44233        245.15735        241.38690
134.74219        265.64463        209.79539
135.52464        135.48286        202.39073
135.13016        133.39867        239.34531
134.92891        132.77277        244.96559
135.18407        139.96655        244.20660
135.47444        145.00121        209.84149
135.20491        150.12170        190.14694
135.66017        150.25816        197.51835
138.66002        152.29499        228.00992
134.28191        149.04944        240.25961
135.95608        153.84529        245.21073
135.18616        153.78000        185.59653
135.25496        153.84554        204.92470
135.21802        155.35503        264.58365
135.25415        158.13467        199.92174
135.57078        162.76822        240.15486
139.01441        167.24386        216.01032
134.14800        164.04546        262.98471
135.42276        170.54377        205.80154
134.80856        179.79840        212.68946
135.02232        179.76213        195.32173
137.99621        185.97189        227.93678
143.43632        205.56434        190.06873
135.03690        194.83030        205.26556
136.96986        194.80265        221.50378
136.55120        204.87309        234.83397
143.37240        207.27386        249.66261
135.28062        210.00389        184.20300
135.16589        211.75929        204.81779
137.03692        219.43865        186.32268
135.26230        219.91162        225.84576
135.60623        219.89319        240.25296
137.23860        229.43050        293.18959
133.70517        228.53770        215.67991
136.19371        245.09941        249.69533
135.44534        253.10932        261.13211
141.17213        124.82829        229.44917
140.52258        140.47088        216.45351
140.18869        145.23222        228.66574
140.51987        145.42914        253.98465
141.31695        149.89183        215.07716
154.72246        164.52157        218.17323
142.36840        153.52200        259.99751
141.87914        164.30600        245.07883
138.26087        164.56760        254.98349
140.15115        165.64334        260.17230
138.49245        170.58128        185.44693
140.08767        170.78136        195.48462
139.42836        174.49321        256.16132
147.62461        178.20826        252.59376
140.25532        183.42251        212.48104
143.63047        183.47774        236.26738
140.44325        200.27380        217.57671
147.88714        206.71737        217.40646
143.45969        205.11088        266.16560
140.54971        209.93199        193.28780
140.39908        209.93768        234.88663
140.10114        214.55980        190.53331
141.95692        223.61092        178.82116
139.95459        222.48000        226.30841
144.28072        222.50991        244.80298
141.76728        224.99069        251.17808
142.03385        231.39522        279.70826
140.14505        230.52511        287.29579
139.46732        248.16944        254.49011
137.48830        245.34527        269.88260
140.51495        245.44646        284.17456
137.78688        244.43684        294.53241
139.42430        249.95068        229.78021
139.97256        255.71304        253.92297
156.92196        270.88458        196.20137
143.92367        258.80605        279.76158
145.14043        125.55408        234.44769
145.44342        139.34387        239.07924
145.02776        144.02792        209.65471
145.08224        144.12888        228.63080
145.12064        149.85571        219.69197
144.49370        151.64909        234.13966
145.34029        151.25465        245.25644
145.49494        154.91292        222.80581
145.22540        160.01103        240.19194
154.56842        179.35765        212.76271
144.98206        163.89667        249.76711
147.06762        168.91571        265.29356
145.12044        174.72415        210.27487
145.03685        174.49818        245.37180
145.28079        179.78130        180.57527
144.91269        178.58660        259.88873
142.46829        184.66220        224.81082
144.18959        199.84497        204.98656
145.04940        214.64671        211.85801
145.11555        214.51596        234.73137
151.10515        229.54602        252.80804
144.79330        225.88116        284.31683
147.15540        230.54290        289.20090
144.88860        230.81673        303.84476
144.81862        235.63371        255.17207
149.03719        234.86140        233.10070
144.84892        239.05296        285.71863
144.01019        245.02856        224.57649
145.20358        245.89503        249.35162
144.01940        252.87393        243.58031
146.27646        249.59733        278.01101
144.51372        255.58542        261.16000
149.21522        256.71953        252.49658
150.40433        130.22995        218.56835
148.97520        134.10700        209.11959
149.90955        147.72422        224.33662
150.45274        153.36809        238.01411
151.73000        163.74968        224.94467
151.27750        169.02167        257.45137
149.95311        176.05113        267.10975
149.10465        179.60869        224.59480
154.76983        185.08747        257.74267
149.93501        190.09343        216.04785
155.00466        189.23101        244.24746
150.63794        201.93892        231.97078
148.84526        208.11084        175.47150
150.12088        208.69637        210.11243
153.03029        211.45290        229.53623
149.07648        214.94463        240.07555
151.16126        218.77128        251.23753
149.91835        239.86029        274.54138
148.22254        242.82172        297.85679
153.33263        246.44827        241.68392
152.47100        244.41061        270.19995
155.43519        256.33947        242.76268
149.96973        257.46431        274.05971
149.81612        259.80939        263.93681
152.68873        281.77873        170.88991
155.80836        127.58589        192.75161
155.80951        126.52516        204.87541
154.87341        158.05348        246.11190
158.01871        166.24878        229.31837
161.90190        175.08405        278.17663
155.13021        176.71905        200.92331
155.77290        177.88031        246.49268
152.96194        184.23546        229.66635
154.77657        195.09547        214.65802
153.92645        195.25813        224.88988
168.40759        205.57094        250.70003
155.32529        204.82146        245.49342
154.76743        209.59746        225.02440
152.98961        214.96666        254.79338
154.85145        216.24021        215.71163
165.08429        217.86824        235.08539
171.27063        233.56940        211.43587
157.34403        234.05807        200.46261
157.71821        231.57074        230.45460
155.88753        230.72191        285.75931
153.97395        235.66724        264.92575
155.69426        234.49443        292.55829
154.15511        233.51098        304.22245
153.45950        240.08112        261.03326
161.70118        245.02151        212.03509
155.25679        244.82838        230.77480
155.30287        245.12415        289.13178
155.09022        247.32509        259.68701
156.41286        259.16071        208.49638
153.03725        255.35510        270.13651
155.23392        254.83640        284.22501
155.14749        260.06061        254.94037
156.89311        264.72757        264.95035
157.61772        280.34460        178.40172
156.04231        279.66119        205.36258
167.87128        88.50226        198.88163
159.86201        121.83985        185.07276
160.22929        119.70606        198.05223
161.84363        132.27407        207.46264
162.57402        134.15875        185.26971
167.23770        134.40130        198.01105
162.91359        161.43766        253.44636
161.30257        177.86885        265.23228
160.22792        183.54950        224.34770
161.12643        184.40186        253.85675
161.82852        188.76632        229.39099
161.68905        189.80795        249.41313
159.87433        194.22270        221.76922
162.43114        209.80823        183.36805
169.85628        219.31975        206.66426
161.06969        220.97649        223.65207
163.94728        230.24692        243.62574
165.60116        234.82907        213.50053
160.78306        234.77005        274.98898
159.64508        240.13808        230.71497
159.68242        240.44687        269.41495
160.01076        239.88240        289.34991
160.96002        238.26441        299.39450
158.89249        251.95572        190.37073
161.16066        253.72684        278.24531
161.05815        255.83231        194.20666
159.77383        254.88017        235.52975
161.71353        255.36131        260.05948
158.99503        254.09653        288.24567
160.00793        263.90074        184.78325
159.47164        264.21227        212.78968
163.89322        272.55909        216.71339
164.29973        271.59516        243.18145
159.90553        269.87518        250.08733
159.75755        279.76483        185.10277
159.95995        278.64753        209.63879
160.87836        286.47781        190.26832
177.04195        99.60410        194.99448
168.42695        109.65683        174.66386
164.62325        114.78487        198.18173
165.72036        123.00796        209.93956
167.68639        125.14597        180.86994
182.15289        152.22216        175.49834
164.46979        159.21028        269.37943
165.86575        169.63683        269.84647
163.13178        175.05453        209.59239
165.05775        174.35402        255.17941
168.44192        179.91809        221.75635
165.16336        185.11630        264.72672
169.79845        194.88365        224.10398
164.44660        197.46407        205.06540
164.88138        205.20021        178.69930
164.07670        202.96138        187.50169
166.02226        211.87112        225.09038
166.02969        229.98195        188.54384
164.62704        234.60112        279.57144
166.58330        242.65588        206.42130
167.68551        241.38741        236.72584
163.73209        245.05710        269.66751
167.68809        250.71186        208.74654
165.38457        250.17477        231.17432
164.85162        249.80879        245.40776
166.09929        258.71346        186.37616
164.64633        254.88664        220.05139
164.66377        255.03503        250.21208
164.70247        256.27505        265.82119
165.87916        264.53082        204.82397
165.02448        264.77835        241.84313
167.37666        265.59566        259.10408
171.61109        277.20826        181.47326
165.07216        270.74121        224.76904
164.62366        276.67932        209.65944
170.29887        283.23634        220.21847
164.55429        286.84615        200.11644
163.69405        289.29910        209.98631
164.53853        297.43305        254.19951
169.29885        79.84548        192.59501
171.47384        79.24112        198.86778
170.45418        90.22124        259.59915
176.73963        105.09567        177.86445
172.76952        97.07868        205.10516
171.12008        114.91108        185.37518
170.11589        118.57118        194.89762
173.50363        126.57432        185.23589
169.38040        124.77502        192.61129
169.43140        124.46096        199.96609
176.44005        130.80102        200.54963
169.76414        131.42165        215.19695
170.36781        167.28894        259.88249
168.64918        170.63234        274.65607
169.46747        179.37046        235.85130
169.63287        183.29595        227.78460
169.83841        183.34184        276.43814
167.93091        199.75003        209.82872
170.09317        200.37572        229.47243
172.59833        199.50151        244.56371
169.51726        210.89706        249.84755
175.26325        210.98208        263.50283
172.96947        206.69425        270.76648
171.72949        214.95235        264.58090
172.54722        221.65328        200.04282
176.32088        228.45893        245.31021
169.80715        231.11004        239.22805
185.56081        228.50490        284.94443
168.85973        229.95891        295.37390
166.11581        233.53985        290.68517
168.53464        239.39600        279.28177
169.62412        245.01654        245.11133
169.44740        248.87401        214.91127
170.95161        255.10687        195.08986
170.72774        255.21330        205.21466
169.59227        254.14573        281.96624
168.83074        259.84173        235.64380
171.55355        259.80115        240.37446
167.78105        258.84512        255.05714
169.82806        259.98569        266.08789
170.94450        264.35888        212.69123
169.49188        266.08139        234.86874
181.68141        272.39777        198.87154
169.87248        268.72608        244.99059
169.05585        275.00946        231.61182
175.71854        285.39482        186.77293
169.87126        284.44406        200.48187
169.45952        289.20136        203.82211
170.51823        291.15036        253.04808
173.54095        295.00151        190.95750
174.29037        95.70289        259.97263
174.47534        95.15900        265.14661
175.75505        109.79931        185.29547
175.07108        114.63469        204.24934
175.86947        114.92947        177.77954
173.73586        119.47200        209.81842
178.62464        130.69587        188.37533
173.44087        134.27939        208.04588
174.92865        140.07321        204.61591
177.18535        144.22691        200.14695
179.69631        157.54045        237.75224
175.04460        168.69241        210.21054
174.74283        170.05110        265.00629
177.88896        171.43782        268.71334
174.91225        169.79994        280.78768
175.11929        175.33868        289.35839
173.60059        175.76324        138.65261
174.98187        174.67041        274.90292
174.27582        182.33728        241.94509
179.31660        179.29450        291.51947
175.44505        185.36519        140.33075
177.47754        187.60446        280.83262
173.57750        191.78642        205.00697
176.61635        198.97940        255.25879
175.72513        206.96032        177.61075
174.77235        204.79334        200.18552
176.18756        205.78670        218.69213
174.70442        207.92612        229.68306
175.65141        225.52888        195.05365
174.74035        226.47609        228.55540
178.61945        231.79193        290.41140
175.08045        237.57948        255.27382
178.16745        251.37002        198.84688
174.59242        251.47082        218.35341
174.57780        252.97386        230.97438
174.85976        253.79210        210.25334
178.65493        251.30760        248.05549
176.39625        255.17056        254.81377
174.31306        254.70595        274.60141
174.32672        254.71384        279.75629
175.10362        259.49094        199.22365
181.26840        259.49897        231.86470
174.52655        258.71835        259.74316
174.61341        261.84190        269.82867
173.77440        267.39870        249.81379
174.69638        265.46383        263.64676
175.35474        269.03967        222.27319
176.61276        271.45709        229.43948
175.03290        284.38315        195.12901
177.57540        290.20773        253.81175
175.53920        300.43738        190.57400
180.40953        79.22465        202.48490
180.42040        85.34411        193.30126
180.14615        86.47891        205.19474
183.74954        94.76368        175.64150
181.34707        99.24848        210.27802
183.65309        96.43406        266.80819
186.82609        112.92012        166.61540
185.24081        109.67601        190.08193
179.61452        109.83216        197.18364
179.51286        129.82797        209.95451
179.52492        143.27776        206.50546
184.52013        164.82309        286.11305
179.94533        165.98367        274.56512
180.55490        167.96273        260.05539
179.57914        172.06787        285.10799
186.16500        178.64685        254.91025
179.74606        178.56137        121.34145
179.49719        181.59470        229.46227
178.94871        179.01546        271.85594
177.69782        185.00351        290.29376
180.66472        185.55112        295.34692
182.40892        187.77791        138.24493
182.89722        189.77066        188.69812
178.50472        190.32947        234.18385
180.57289        193.31217        210.05699
179.03315        196.70172        228.98419
182.40052        195.66785        198.66620
180.68994        199.08440        204.79642
183.45208        203.59591        240.18792
183.53796        204.36204        195.94729
179.54877        203.82456        250.24472
179.99205        212.01798        249.61469
179.22060        209.84784        258.22404
179.70818        210.26779        279.31729
180.70084        216.81805        269.86725
184.20701        212.71299        283.65161
178.74697        219.62393        195.15861
179.40813        220.05257        205.02930
181.38942        218.84396        259.93027
179.87819        226.37347        224.57538
180.86836        231.04008        234.57872
179.76828        230.64564        195.45114
179.49239        230.60957        259.85861
179.82298        229.47342        303.06397
179.60925        237.31889        169.94582
182.98686        241.34233        160.02706
179.64178        240.09132        190.12308
182.15363        242.66876        261.58460
185.77636        245.45644        172.96258
179.94565        249.95757        219.66197
179.50612        253.89142        215.20729
180.45844        253.25986        263.82691
181.49224        259.71825        274.58499
179.50337        268.59857        264.84802
178.87647        273.80401        235.97180
179.90092        284.45776        224.60414
181.32918        283.43590        235.91650
178.51699        290.37170        189.83974
179.55806        287.67225        195.11198
180.11073        287.80249        217.34112
185.61544        302.20656        199.12680
182.90795        295.21812        210.57017
183.05818        295.20604        229.63323
183.99284        302.75059        210.88802
179.55701        298.36381        224.83526
180.59752        304.99899        205.04976
186.06784        77.94522        191.03620
184.57230        86.36820        210.59734
185.56158        99.67278        215.12639
194.21008        98.00043        274.71282
185.07856        108.50270        179.62602
187.12365        108.79729        299.73264
189.54921        120.00441        151.56297
195.30051        127.83455        192.11959
187.00536        134.22497        157.17718
185.54251        135.14230        207.85368
183.34625        145.02928        234.85609
184.61610        154.92177        189.14780
183.33574        163.43399        225.83685
184.14116        165.16492        257.44214
184.91093        169.55905        264.99966
185.21046        174.91884        284.63217
221.68767        183.31944        140.32441
195.79816        183.44430        246.50683
185.62402        180.63916        295.11673
189.27756        187.19536        234.72305
183.33301        185.21034        270.02747
188.67560        189.70862        266.91054
185.19851        191.83273        184.84407
184.82416        197.52448        245.37161
185.49104        193.91727        284.07513
191.79753        200.89365        220.28734
185.40530        199.86389        233.04426
187.68443        198.54765        259.91850
184.99586        199.66112        267.87666
185.26913        202.98033        185.43549
190.59053        203.15047        232.11329
191.14791        210.34613        251.44535
194.96177        214.89462        214.99155
185.66193        214.94092        263.75489
185.00771        219.59494        195.26369
185.35504        221.44826        204.70244
184.98358        218.80333        272.94678
185.00539        224.85286        210.25890
193.05260        225.67502        219.92239
185.24376        224.92139        245.27014
185.25568        229.66164        191.25346
186.41746        229.42256        252.72442
188.24494        233.64568        215.14421
185.12088        234.92767        229.66278
185.24667        240.08450        169.60249
187.69233        239.22706        184.76329
186.78820        240.15987        194.50168
185.01967        246.36388        230.86314
187.00005        244.17798        286.11868
185.28407        248.57028        202.52223
189.24621        250.86985        221.93577
185.50339        249.91475        240.16096
186.80533        253.28645        250.02729
187.81742        254.91087        263.95558
187.36140        259.41686        199.82787
185.44569        257.33735        215.04105
191.94141        260.43243        221.74075
184.78885        264.26570        245.10160
185.27440        265.20230        208.74230
184.46646        269.81192        254.77166
185.31532        265.17703        265.77881
187.86548        272.84958        212.22137
188.72564        276.48726        224.98424
185.59979        276.63970        282.92173
185.22552        274.97946        303.33170
194.48925        283.37898        187.18858
186.22333        280.40376        210.33812
187.01533        284.98927        220.35587
190.91884        291.13100        266.49226
185.46616        299.23850        185.15167
186.58894        308.34057        189.89731
192.02206        75.65670        197.32848
190.27267        80.59699        174.47047
194.17636        79.63061        181.75907
190.22508        79.91867        209.92250
211.29153        115.56018        172.00977
189.01286        85.43172        189.03757
192.02737        89.30956        200.81965
191.46857        93.86051        276.71772
191.30357        101.64042        205.89051
190.45710        96.35145        218.23040
190.73178        105.20627        304.53629
190.14435        104.63684        290.37073
190.40355        107.34948        279.40030
218.50552        124.77363        215.26171
194.14661        112.80505        214.84485
189.40778        114.47211        269.78088
190.28310        128.45015        159.56332
188.26410        135.45834        149.84570
188.53775        143.19057        237.03450
191.09838        144.75301        245.38527
193.01138        150.05305        166.87128
189.10532        165.12796        254.89618
195.56568        170.41288        263.85485
189.79480        170.63656        279.33440
187.26984        177.13631        269.32262
189.21611        179.89816        300.13147
189.23842        184.66935        277.66805
190.76524        188.29954        297.76694
190.46190        188.49064        249.99012
191.25491        192.54191        244.98247
189.14942        194.92229        252.30878
189.85318        204.12531        176.58352
190.51400        197.25810        213.87498
190.33580        205.00325        159.94336
189.27336        205.96185        279.57315
189.87013        203.89996        290.02158
191.85683        211.29272        169.64398
190.76230        207.29792        284.72641
189.94106        219.87736        250.08661
204.96426        219.68151        266.53027
190.34869        218.58774        265.94348
189.97931        225.80496        229.30843
188.49610        224.30899        257.20167
190.41190        229.54953        209.53285
190.18620        231.08145        240.53773
190.54301        233.52880        143.93651
190.36795        233.40178        205.23184
190.22516        235.66763        245.66737
190.36647        240.53641        150.19922
188.30876        237.51473        154.97742
190.00264        240.28224        167.94539
193.67355        241.10024        179.66861
190.03401        246.60215        211.24244
198.34892        250.70797        165.97533
191.33798        245.07876        234.66446
190.38220        244.92316        239.95361
192.18596        244.89775        267.12347
190.53409        245.01657        291.28009
193.09416        250.97678        204.55770
189.85439        251.02376        255.29961
193.28954        249.12169        275.54755
191.21410        255.13094        235.45856
189.10272        252.16892        284.51242
190.11166        259.93332        204.96689
191.76276        260.95735        213.93163
190.48593        258.93778        280.62225
192.09514        264.15286        268.86488
190.52383        271.74429        219.99788
192.23916        270.02397        246.10461
195.36696        270.40707        299.15581
187.74027        270.59382        303.25937
194.97595        278.40491        231.05705
189.22199        279.91428        286.56223
191.43232        285.48786        275.66403
191.46357        291.28981        216.94288
190.33928        295.35571        190.24216
192.18044        294.84938        234.33381
187.78205        299.82059        219.35683
187.60012        305.00324        214.49585
192.60577        85.20918        213.84699
195.23506        90.20425        274.88559
194.97972        95.05490        166.89561
195.52177        95.18671        194.05714
193.98026        94.74354        294.21317
200.07877        99.50613        186.59701
195.89666        100.26034        196.26113
195.47957        104.71812        284.18002
197.07828        106.74044        301.52915
195.10709        103.80013        308.78717
194.97159        113.50214        152.80213
198.56656        110.62586        183.62961
199.93881        114.79844        196.13818
192.46553        109.79732        290.14322
194.41641        114.97550        259.22955
195.49437        125.83378        159.34350
195.33050        139.98792        153.91270
204.78920        146.14445        149.11182
194.54494        146.70018        159.39109
199.63379        169.46133        273.13710
194.68435        166.47517        293.28889
196.14242        170.61247        104.99489
195.14577        170.66335        283.38999
202.23816        174.07016        301.94371
195.18015        179.36981        290.28000
195.31845        179.63303        304.06598
196.91994        191.54923        216.72219
194.97748        190.32420        104.83182
194.29466        189.90707        185.03812
195.19912        192.15932        224.68207
201.44910        192.61048        275.71276
196.54895        193.34689        290.13787
192.52973        199.74025        189.46754
195.15903        199.07061        204.90515
200.47908        199.93096        240.54014
193.24564        199.80569        253.79181
194.15871        201.06523        276.44614
195.49045        199.96408        291.13382
194.16596        204.60412        301.15902
195.13325        205.18726        169.87500
195.30156        204.89655        209.92821
195.46570        208.04818        265.26601
194.30009        211.08388        164.79651
193.40863        213.16720        176.58759
195.08214        210.90114        239.89227
195.42348        214.73544        150.29572
197.38552        213.41368        245.42945
195.41244        220.80225        229.37140
193.30736        228.96152        190.30452
194.19255        229.56502        244.88019
196.51201        239.72713        168.06279
195.15486        234.83797        173.59146
194.68114        235.60977        240.37827
199.12749        238.47103        251.31852
196.21892        235.73050        258.78159
194.92737        235.56569        269.93954
195.44742        240.44034        204.64177
197.22310        240.04192        226.55444
197.00123        240.07309        289.97754
196.90721        242.92090        297.19921
199.61699        244.07733        307.90244
195.04400        246.04861        149.81933
194.05318        245.62217        215.61017
198.38136        246.39649        255.27050
195.00388        248.24712        290.14105
195.31902        254.76289        243.96857
194.73226        262.58037        253.40573
194.88530        258.92639        284.22879
195.17651        258.13547        289.29752
196.91450        265.64046        196.44191
195.14946        269.79132        204.64735
197.23643        270.08866        259.68079
195.14897        274.73849        190.53914
211.93332        266.79417        220.44863
199.88987        275.91753        220.13504
196.27101        274.41690        248.89711
196.47333        274.76339        308.28841
202.85596        280.75835        242.86942
199.79385        295.04500        225.85928
195.41089        304.54637        193.94455
198.89892        299.76834        234.17758
199.37207        297.95305        241.09502
198.09948        304.58279        225.39306
204.62729        79.74432        195.03606
198.97104        77.70124        200.17370
198.94135        79.33661        205.09300
200.21637        85.15556        204.08300
199.77603        96.01738        167.69898
200.18275        95.17165        208.75372
199.79922        98.01425        284.60132
201.49542        100.25489        309.93994
203.73842        106.26453        194.30023
200.12074        119.77569        174.56592
198.94405        119.71589        260.17938
199.81749        116.87665        265.23123
201.62046        124.66655        177.39613
202.50890        124.03306        214.86402
196.58549        140.27285        160.08224
202.08800        150.75963        171.25495
198.19550        151.87766        154.03659
203.68908        157.80826        156.00042
201.05222        163.80126        265.81237
199.81448        160.18179        284.72986
199.98825        164.66615        298.08466
200.08348        169.41365        109.92925
208.70763        178.24073        227.70383
197.79247        174.21816        252.56826
200.03438        175.64331        279.53146
203.43992        173.24385        290.89619
200.76716        181.15026        295.11246
200.01299        187.54981        302.63642
200.67136        196.59920        185.76384
203.41702        191.96201        260.09744
200.43402        192.68515        110.64655
199.88950        195.48044        136.44697
200.00293        195.38934        194.91545
198.98390        195.45189        206.01160
199.06369        195.43494        229.37245
200.04473        196.80334        250.02142
199.82001        195.01283        264.67011
200.72555        202.72324        159.66385
201.73539        200.33024        194.88771
200.84952        203.56896        256.13134
199.85040        205.18082        173.71666
199.97408        203.13855        275.58441
203.37189        204.92109        279.61957
201.01868        207.39052        294.18893
198.96748        214.85176        159.51902
200.13608        216.59601        185.23750
197.52158        215.36865        287.96676
200.06958        218.20183        253.41314
201.33408        224.98577        142.78656
199.70158        227.12617        150.65826
200.10605        224.63806        229.53105
205.26802        224.51729        260.89278
200.31902        224.90289        289.28851
204.83329        231.42638        290.47073
199.92345        231.36632        294.25180
199.81241        233.70028        140.33156
198.99175        236.32868        159.18845
200.09803        236.91978        210.45528
198.91248        235.37987        245.27255
203.40312        234.91198        302.78851
202.79704        240.11264        154.42640
199.68167        241.33095        234.80441
199.94156        240.95424        260.17131
200.45465        240.42818        270.66339
201.21321        240.17480        313.38828
201.78342        245.62613        239.64195
200.26390        245.40462        272.39205
199.91158        244.98131        288.69211
197.31600        250.42975        144.75060
199.90121        249.74493        200.11719
203.68874        246.46356        274.39123
200.16977        249.78383        293.37738
200.08520        254.11393        148.07459
205.72835        258.66987        159.52153
204.26651        256.80857        205.91331
199.91068        255.32761        219.66866
202.99061        253.15535        252.39896
201.81894        261.53969        273.69398
200.24474        255.49849        301.71900
199.85331        259.03265        240.60264
203.26543        267.01831        222.99797
209.55085        267.95780        261.66627
211.58192        283.56502        198.96261
203.04796        280.48970        252.54602
201.88071        275.19047        260.98204
203.00026        275.54158        275.26497
200.10733        284.47992        234.60071
198.14672        285.72008        280.56266
201.62053        288.43340        217.22125
198.81930        290.56837        304.69072
199.83164        295.05580        186.50925
200.77659        296.77354        208.54568
200.29800        300.15482        219.78957
207.92206        307.30989        217.52040
202.01840        306.46748        188.86164
205.11781        76.66107        202.06574
203.88814        89.02453        204.99893
204.96526        96.73758        281.70679
203.86127        104.70326        315.09864
204.81985        110.97589        184.31775
209.96842        121.30683        186.30072
211.13172        126.27586        197.14736
204.95844        127.02107        204.94543
204.94394        124.59398        210.00430
208.41936        129.62896        297.21625
203.58234        138.46324        168.61172
207.64233        134.72112        174.74579
204.92761        135.15930        179.79289
205.93771        140.00768        184.21149
203.32178        159.87226        164.59486
204.89966        159.79684        169.43507
206.95237        165.70464        121.27362
206.05418        165.02107        289.39859
204.78636        170.72328        155.33569
207.10085        169.84990        159.86450
206.27451        178.49041        280.09404
204.69775        185.05832        266.82549
214.00691        189.48761        161.42379
204.97524        192.33287        255.00204
203.96872        191.64943        291.31376
204.92380        195.07323        245.34851
206.50096        199.21807        119.57710
204.86409        198.89726        271.74105
204.03658        200.27197        299.28742
207.83711        206.63452        248.40526
204.02985        209.55948        169.35893
204.24195        212.26279        176.54868
205.08160        210.74181        234.29811
205.03409        215.24669        155.83644
205.28175        224.16391        233.63414
205.06774        218.58072        249.08488
212.31608        216.68795        279.05803
210.27603        225.17458        153.74215
202.44579        221.90625        214.85435
204.70549        227.32443        226.56123
203.05712        224.65935        269.91306
203.23212        230.07416        162.80451
202.96185        230.73503        178.77051
203.72917        231.57297        204.50255
205.31644        229.21779        276.47627
208.36788        236.04950        138.03896
203.46138        238.78844        216.35508
204.54996        241.80178        175.37709
202.49412        240.27648        229.84905
206.15828        240.08775        255.30565
208.33712        242.80860        281.61423
207.01710        246.69502        144.64218
204.85968        247.93003        199.91908
204.91906        245.18550        262.59908
209.22386        245.26624        293.76190
208.05485        249.48490        155.33785
204.92958        249.78822        205.40941
203.84574        249.79061        243.41235
208.61365        254.77593        141.78425
206.99680        254.81977        149.55821
204.76576        254.99483        279.91049
202.38970        259.85729        219.76850
211.07504        265.65172        190.79917
204.85014        264.75015        210.98248
205.18840        265.87310        259.92142
203.95879        269.96771        185.19931
209.26362        271.07666        240.13959
204.94006        278.93771        232.17805
203.00840        272.93998        279.75607
205.06190        280.58527        214.63203
204.31790        284.43549        299.09894
204.97321        290.32394        240.25078
209.73956        293.02617        242.47044
212.67341        301.93762        230.08103
215.98817        308.86898        229.55939
211.91314        79.80267        206.61880
228.09309        86.96968        202.42344
209.79892        114.88246        214.77051
210.18936        120.91527        218.61373
211.67239        119.70251        233.29893
209.68108        124.51102        179.88210
213.44192        129.65596        176.59861
215.24111        139.45287        181.73693
210.65609        141.42617        174.81387
210.20305        138.43425        205.27572
209.75768        148.96177        168.62887
213.82588        155.75728        157.95172
210.18613        155.26411        261.65579
210.28168        161.06816        260.07410
212.46348        165.27998        152.75415
210.43298        167.63040        165.80605
219.51399        174.08828        245.74778
208.72261        175.00554        274.82309
208.97399        179.52500        269.19332
219.59090        193.12585        230.55609
211.68245        188.90784        272.14573
211.12524        196.40492        256.08102
208.41401        191.83583        264.84744
210.03863        189.95180        295.22300
210.16916        188.45600        300.20526
211.77109        194.01459        230.76648
209.76801        200.03037        282.77542
209.81177        210.86072        159.68758
209.75559        210.05445        220.46578
216.24181        216.56558        242.12450
210.00373        208.89444        286.40108
224.65063        218.32296        157.66802
210.79896        216.58495        185.54333
215.19598        215.45962        218.19517
211.24844        223.03765        174.64631
210.37840        220.42467        222.71151
213.40492        225.89377        138.73535
209.70741        224.47438        159.71117
208.02778        224.84744        164.89236
208.79372        224.28268        195.32828
213.10897        225.23250        234.21432
209.72231        229.19711        184.93758
212.65760        229.70824        209.64796
213.35671        232.05872        146.35852
212.89868        236.28151        251.37674
210.04257        234.60401        262.44540
209.87046        237.71887        309.39264
211.76172        240.39937        233.65094
212.66107        242.22837        257.50697
210.00206        244.80392        127.85313
209.98351        244.74977        161.70091
213.64397        251.02684        194.65597
210.11270        245.06992        229.57576
214.53072        254.01935        216.46402
209.53002        251.21076        269.57465
211.19409        251.42706        281.42451
208.83796        258.18131        295.16983
212.43442        266.75628        199.95660
209.62339        263.27737        279.36011
209.61559        270.16486        279.78391
210.09187        275.72629        289.88220
208.79399        275.41498        295.09110
210.02693        278.50931        179.94214
209.71796        278.44586        265.19269
209.58621        278.82547        308.80350
212.88173        289.28669        220.91018
212.42693        293.75424        212.08006
210.89894        300.39609        203.87566
211.69184        304.86584        201.14909
210.96625        305.97775        209.82336
217.95221        95.15194        194.68759
215.03992        99.86768        196.31596
214.64978        105.00982        189.89948
213.62001        109.63802        304.27768
214.54044        115.61861        280.68423
214.56999        118.62312        194.96564
214.67400        125.68349        189.92320
216.74742        124.62355        224.63936
215.32114        124.63889        231.58412
218.26540        129.64043        223.34918
221.41555        136.11900        288.94010
219.09086        141.59544        261.28966
213.84011        149.69963        187.56634
223.11353        148.22805        195.58094
220.34091        153.21994        285.57362
214.88489        159.84407        251.83188
212.93092        166.75660        109.95505
216.69077        165.52657        173.23014
214.74950        163.66690        259.58588
220.91027        176.89458        165.80682
214.64935        180.80337        110.04955
219.32139        181.27391        314.34274
216.62349        187.19967        258.92545
217.02669        194.75806        262.23261
215.72913        199.80794        215.90620
217.25263        205.71339        250.01420
215.07462        209.60075        210.17021
218.87457        210.53881        255.87833
215.99278        216.69004        210.04498
215.88292        215.11227        250.41502
217.31701        234.46639        119.28327
222.78075        235.32507        215.47919
218.93142        243.57322        232.31372
216.96771        246.14690        132.21336
214.78871        245.32057        146.32797
215.82008        244.22354        243.41922
217.50619        249.83378        269.90150
213.94722        253.00426        159.61636
215.91357        254.05914        224.62876
214.50550        253.04036        247.46472
214.45866        256.27950        299.98894
217.58340        258.69206        186.36237
215.19077        259.86313        194.77541
215.02034        259.90750        199.97142
215.77561        261.88231        283.64852
215.15881        273.20759        205.60886
218.94058        270.92056        282.71019
214.69133        276.31423        180.73090
213.95227        274.73776        274.84531
224.10321        282.39400        289.61943
214.91933        284.91397        240.40822
216.37244        295.25726        219.68948
213.79572        299.01120        255.07849
219.60970        102.35118        200.13487
220.31087        112.24261        194.97464
219.69047        114.89961        201.39778
230.73503        119.10545        238.69598
217.84037        118.67265        229.36395
219.89034        127.45652        190.07244
219.60710        125.68307        234.88605
219.81784        132.53278        184.20496
221.90943        140.49979        191.17473
218.75414        135.02284        224.84158
219.80591        150.06518        182.13434
218.04596        154.70336        180.49717
225.07100        155.41691        258.94532
220.05508        159.71254        187.61817
219.70119        158.23752        250.31243
219.30609        167.13473        161.42646
219.51616        169.98932        170.09805
220.33896        177.97532        319.73068
222.88751        188.25688        213.28926
223.73456        190.07303        150.47467
227.51870        185.58027        309.56313
219.85593        197.58535        150.59701
228.69344        195.40073        158.39524
219.44165        199.97237        208.05773
219.76019        200.00167        261.76687
221.23918        205.20785        210.97107
228.47553        205.00437        239.95799
220.19993        208.42650        136.18885
225.52425        209.27538        162.14885
220.15999        222.15302        210.84227
222.52158        223.31615        274.90653
221.77141        234.72423        127.32358
221.41581        237.06009        260.81345
219.19734        237.38314        278.74683
223.49739        242.19696        143.58188
220.06126        245.18950        279.55569
219.98317        245.25679        295.06152
218.63039        248.17749        153.76766
219.48027        249.84840        298.30081
219.64973        255.16917        289.29227
218.59837        258.75913        244.93023
220.95114        269.40800        196.51878
219.56464        269.98267        236.40818
221.51861        270.81301        248.33641
219.81160        275.78271        181.51687
231.82312        284.53814        278.37718
219.73822        284.75397        216.76068
219.57637        285.39722        244.05884
219.75911        291.21977        215.03333
226.18856        293.38754        220.68423
221.64779        299.88992        214.66669
221.60038        299.86910        237.68797
219.64246        299.12946        260.09033
238.21203        97.50748        230.76757
222.96870        100.09900        214.98491
228.41291        110.16043        209.85365
