69.43654        129.97748        111.29448
73.90786        113.46308        81.48531
66.93648        125.24429        85.37422
76.38596        127.72138        93.05186
66.46845        121.16009        102.14492
67.22444        132.31822        118.40849
72.91524        141.24944        104.29494
72.53628        137.23251        118.19846
79.72699        54.38344        93.32166
76.13732        64.05711        100.17488
76.01573        76.57392        89.66693
81.14584        114.15034        90.65453
72.77652        118.33919        112.09999
79.15685        127.74062        79.92655
72.18713        132.03348        102.10634
79.11825        69.23543        84.52147
82.77027        73.52148        101.73219
83.38511        80.80513        147.60822
86.57380        92.76795        113.17767
77.21079        95.36888        118.00019
80.15724        99.36810        126.92610
80.70697        102.06149        117.81970
79.34746        111.53939        102.09682
83.41065        119.23731        102.05544
78.17758        123.88649        107.35589
77.42522        137.90400        121.09016
77.40658        147.41003        117.58679
82.74592        63.97066        87.94126
83.22255        64.33795        94.32440
90.66772        85.97877        131.53971
85.46261        80.83445        97.16145
82.97456        88.09452        127.97042
83.05690        90.88675        117.90034
81.96763        90.87795        123.39390
82.17044        104.15207        80.68281
84.44762        102.13878        112.45329
84.70281        113.86591        116.89090
82.73804        120.73792        77.58822
83.70491        129.72911        114.21860
82.92721        133.41957        104.87760
82.79985        137.27353        107.21656
82.58181        137.16047        122.61984
83.20568        143.12965        107.52834
85.49928        146.50552        121.46235
87.77261        37.35945        98.53844
87.46254        45.57442        101.76384
87.76362        67.15076        88.72630
92.33419        71.39694        128.61490
93.60972        67.63228        143.86653
87.83437        78.39116        84.93284
86.44838        77.23362        123.21300
88.38905        103.89417        80.87994
89.31603        118.92423        77.44938
88.38869        124.01129        88.52493
88.66138        129.12476        118.37814
88.17657        137.25715        123.16012
87.50189        142.45865        112.64190
87.95592        142.21941        118.11797
98.45212        147.59883        112.64949
102.52424        82.28375        170.88458
95.05834        71.99983        88.04936
92.75466        71.33495        93.86331
95.86791        79.41298        89.65263
95.35478        80.27206        109.65205
97.19908        84.70890        143.92286
98.25480        111.48469        72.63790
91.85888        104.51840        122.86665
94.90981        118.12400        84.29390
90.98170        132.70855        123.37127
93.56431        136.47399        127.42548
89.97041        137.44232        117.99367
100.97530        152.60424        126.53127
96.27083        33.60884        96.82500
103.95438        75.05315        98.06301
97.11964        90.99036        123.66704
97.06739        92.75545        154.98383
96.65532        101.95317        115.84186
97.14895        107.66252        66.85888
99.37503        122.77297        79.34424
97.07215        123.31618        102.10141
100.60673        126.13730        71.19680
101.21310        131.27825        98.40932
101.75388        26.43389        96.76558
104.73737        61.63263        137.97536
102.37332        63.02867        149.67524
101.99792        66.97325        133.95266
106.36889        69.82596        163.20341
101.85798        67.68629        172.62453
103.69559        71.76835        137.59088
102.24060        72.83129        142.48515
106.01724        73.42153        149.85667
104.25177        79.98698        162.15617
104.80999        85.29163        94.62467
102.13401        88.18279        102.07726
100.15883        87.68801        126.06084
101.91694        93.96530        102.71929
102.26289        95.00786        147.78741
103.98882        98.34767        156.25101
101.77331        96.25980        91.20008
103.29855        106.70644        66.05394
105.26606        103.82770        118.82502
100.10565        106.88583        88.71993
103.94837        112.58382        65.72771
107.42553        116.88798        110.83941
106.78849        139.92494        123.50595
104.74352        142.34976        130.16452
114.41784        57.11854        145.19031
122.71362        63.45090        159.94671
106.92129        66.50829        150.93691
107.40722        72.23977        173.26024
109.12841        79.36013        107.32300
107.70677        82.99649        138.02831
107.22062        88.36760        105.38030
111.17872        87.92824        137.23398
107.36784        87.63799        141.96143
107.51125        87.71079        148.62751
107.54810        92.52678        102.57579
115.00231        91.50429        132.57807
113.04603        94.63292        138.85643
107.09224        92.74233        161.82481
107.68918        96.37520        88.02270
109.32733        102.42492        97.23121
111.09636        109.27783        75.17638
107.02002        116.82070        82.33865
106.83955        123.21382        68.72970
107.37612        124.96192        76.91336
107.86290        132.38381        124.90457
107.91428        137.59943        112.93713
116.45332        82.15568        172.39657
117.86926        84.95958        93.86862
112.88018        88.53213        123.42437
112.48574        94.70471        95.63440
112.46693        91.27602        101.77585
115.95940        93.83738        153.42628
115.02926        97.17285        117.99819
118.36710        97.84030        145.04267
117.54608        103.34101        158.38788
118.92784        110.76099        86.84787
115.28567        107.38088        143.81267
117.46271        113.08822        137.53198
115.09134        117.85483        69.77522
112.83640        127.68765        77.36472
116.24446        140.60580        107.03555
113.79592        146.50199        117.58835
114.84341        141.23081        128.07264
113.50061        145.72485        102.55992
117.20473        150.31035        113.54628
119.73222        76.82114        142.23690
117.70804        87.20999        157.98193
117.63182        88.85228        166.06340
119.30281        88.52856        102.30519
118.76079        113.69622        145.11228
119.10136        129.27417        80.41016
118.06904        148.06035        101.37812
121.12025        151.86139        100.88241
123.16745        64.20271        147.80512
123.36756        80.65354        122.97600
123.64349        80.49575        128.54445
122.95271        87.78601        115.29729
123.38276        93.44666        147.82319
123.78890        85.87117        161.42808
120.96481        92.99967        87.62273
121.31839        94.98135        107.54768
125.15032        95.20073        116.80324
127.59904        93.34919        131.76138
123.43918        97.03728        93.95309
124.57933        102.92253        147.51428
132.48785        113.17426        155.31619
123.31641        117.89416        77.41644
122.96559        118.12904        91.17221
127.60307        119.91155        139.90683
130.89333        125.83923        72.43904
122.84251        123.15293        92.69017
126.64546        123.38611        148.10166
122.10206        131.33397        91.28985
123.17103        130.80595        105.30879
123.47143        137.23784        82.44409
123.05748        139.92313        97.06149
123.24714        140.03588        117.18096
123.16234        148.93068        113.03469
123.12050        152.78783        107.30591
131.54067        79.28051        116.12776
130.88380        81.15832        126.62811
130.34906        88.20754        84.25874
129.31344        94.40872        96.98209
126.45075        94.32152        153.08483
128.09848        96.80391        159.04066
127.94629        101.99198        117.96755
129.74047        103.43299        125.13406
128.17198        110.00108        117.69505
130.20092        118.72294        78.98824
128.51899        117.87378        88.15399
132.34813        121.03327        93.77293
128.64932        131.61086        107.47428
128.38011        130.22305        96.93291
127.88323        128.08667        142.61750
128.13585        136.23641        114.10255
131.95776        134.69453        81.80444
131.80767        140.68063        100.39250
129.71771        144.67481        119.37599
133.06203        149.69505        101.79626
130.52402        150.09650        110.66890
136.37471        75.99710        87.49965
131.99848        82.92494        85.70473
134.37094        89.12561        112.72448
134.93426        95.25244        81.00342
135.44014        92.56266        120.71824
135.98275        97.85418        100.22307
135.80612        97.19018        148.80496
132.05784        101.81745        78.04534
131.77801        104.76623        91.82853
131.94331        105.59420        138.87909
134.67131        107.26369        81.49745
131.37309        112.60011        91.46442
132.30309        113.17579        122.78614
131.59254        112.69878        141.97372
131.76131        130.55590        91.20739
141.57342        127.68294        146.04000
140.08795        81.30628        77.32234
140.85632        96.87251        139.21759
142.20041        102.38298        83.54993
137.00990        102.41253        124.75081
138.13429        107.70285        136.62121
137.66552        112.10602        126.37878
139.92781        120.77558        143.79054
136.94962        122.81327        85.49203
137.10299        122.81255        132.77065
140.49144        129.58173        84.48900
139.40870        130.60199        96.72238
137.51540        130.03185        107.16131
147.32471        79.91936        91.58211
146.04077        88.02640        92.71758
146.47407        96.02739        76.12330
143.88121        94.90836        93.33942
145.81963        98.50580        156.30764
144.74963        106.39119        129.75663
143.62299        107.64198        143.17539
146.81570        110.35250        159.79309
142.42138        120.39402        128.00635
144.18370        122.73371        137.31046
145.27607        129.23183        132.27024
145.99800        131.67284        137.43156
147.36753        80.17744        77.59792
152.16563        85.43187        82.65023
147.64091        87.90337        72.51312
149.30628        99.90052        142.38579
149.55449        101.88172        147.90360
147.55608        112.34849        142.63078
147.28908        112.90265        153.03287
147.75976        117.77902        150.70146
150.73235        87.89199        87.65218
153.86848        96.02727        85.31761
154.55333        102.18539        153.96208
154.14162        110.58499        136.44264
152.54166        112.73553        147.19362
155.59619        118.68259        135.45118
153.22947        117.88130        146.52048
155.47811        123.32266        131.10796
154.65074        130.71465        142.60010
155.98709        107.63878        144.92010
