77.08666        114.32222        128.64912
79.19600        100.71829        120.53635
83.96490        96.29734        126.86773
80.53269        106.90883        120.74452
81.23466        116.34096        115.76470
85.65642        100.99776        145.96927
87.13313        106.48841        106.04131
86.79307        107.04160        152.50807
84.83402        119.14326        134.35333
89.11327        115.99253        145.92971
85.14742        125.92513        112.14880
92.38449        89.23406        125.65448
89.15764        99.01221        108.55712
91.28362        108.42063        102.03312
91.43247        120.76208        106.11120
94.40445        119.91000        131.76787
93.11371        125.72377        141.39613
91.17460        130.02890        115.79376
91.47065        165.45943        132.36394
94.13234        176.52369        135.46330
93.25190        84.82548        145.19989
96.40079        93.59672        112.96190
94.86250        98.54040        155.48675
96.46166        100.82790        101.26549
96.84391        117.83315        143.04412
96.74526        118.85554        150.68934
96.26407        129.52702        125.56595
96.66316        150.50145        131.39462
101.89324        155.33920        135.78580
98.67855        166.30519        130.99073
96.56066        180.20132        116.70051
105.39902        82.47945        140.39746
100.76962        79.36910        144.93806
102.98515        85.44190        126.17207
100.70289        85.90012        133.60077
101.08919        91.06324        135.38090
103.93273        98.59880        137.47960
102.23333        100.67911        126.06377
100.59921        106.10213        131.86115
101.06518        106.20759        146.29670
101.09985        112.12238        125.95714
99.18340        110.30128        135.94787
100.88709        110.74967        149.56004
101.14533        115.98969        99.40068
104.90583        120.67441        126.07619
101.38826        135.15482        103.70112
106.63959        166.46681        148.26047
103.45674        172.46725        120.03493
100.78365        170.47135        125.81182
100.68208        176.48023        135.23045
105.98473        94.30200        117.78928
106.50295        90.61877        126.45826
109.50550        103.28172        102.61441
106.35310        107.71594        144.24638
105.93242        105.80126        160.53322
106.31073        108.93801        125.35244
112.06186        107.07541        149.96195
109.64215        116.03235        106.91479
106.45715        120.08802        118.55756
106.26174        120.01545        133.60539
108.60380        118.57993        141.10733
104.48624        127.81558        144.97194
109.22852        131.04559        111.54440
107.90849        161.09245        126.10072
106.34415        161.13666        137.67680
106.13321        167.74137        136.60424
107.31049        179.03718        110.99067
106.46143        178.15463        124.59182
109.47287        176.35549        131.96392
109.41096        177.59352        145.22325
112.81331        87.19295        108.55980
115.71074        85.47672        133.70942
110.32448        91.35024        130.98778
110.23390        89.34607        159.96282
114.03927        100.92287        133.81891
108.71404        106.39092        120.64368
112.62537        110.28241        110.77928
108.75326        112.53926        141.34364
110.95382        126.22000        126.38478
110.98717        135.74208        144.03324
111.53754        139.92497        102.56914
110.92996        144.01801        153.88912
113.28261        156.26917        133.33243
110.28480        167.27989        129.71050
115.13833        180.36690        118.26458
111.98954        187.39557        135.57742
117.94935        189.62469        142.02095
116.67996        196.52940        136.10123
119.18369        80.90839        128.38100
115.67706        90.58447        120.67678
114.47379        91.40602        139.46841
116.74492        97.73389        125.66163
114.49705        96.39979        141.71013
118.74025        99.67026        117.14385
115.23193        106.20253        129.45038
114.35361        114.22203        117.79461
114.75337        111.09768        131.03507
116.54545        116.12031        132.12569
116.39436        125.00551        96.92339
117.17682        120.18003        126.73849
119.37973        118.09906        148.89627
116.28312        125.92021        120.19116
117.05876        126.20791        146.04160
114.84698        135.43019        91.29541
118.83693        133.52951        111.72508
117.50861        140.99161        144.56576
118.10909        164.35606        131.24896
118.37814        160.68378        141.22032
117.30004        170.75267        160.60393
117.22558        179.15927        150.54892
120.14404        177.72166        127.35382
116.19694        180.53992        138.54042
116.06405        191.70860        128.11998
120.66980        80.29919        137.28033
120.43365        80.64699        156.04044
120.12990        97.83335        104.18315
119.80475        104.80329        161.19278
120.07087        117.81192        104.54601
119.77627        110.53093        141.55174
120.44294        120.10344        135.72643
121.92803        132.21402        158.37062
120.48004        131.71133        145.64528
124.05402        133.20995        119.29347
120.48877        139.89684        119.24285
118.63622        141.06786        154.94722
120.51786        145.62980        145.26426
120.45671        146.03619        150.82842
120.75833        155.31199        159.29252
120.08401        164.59870        152.51961
123.03338        169.22993        141.91842
118.97912        176.27923        141.18203
120.98633        184.28246        111.26103
120.26423        186.01423        127.42413
120.64242        186.00206        154.71785
119.87278        190.67247        151.08877
126.28143        82.16437        131.94032
126.19202        76.89777        145.38619
129.51141        91.16235        129.69747
127.41936        96.20978        158.41367
125.75842        100.59198        125.76200
124.21982        105.99447        132.12009
125.63932        105.84059        160.42872
126.67294        111.93944        100.58546
124.17307        110.68927        110.91526
126.34604        110.63158        135.87462
125.07233        118.47017        116.14733
126.64550        124.72965        153.77532
126.11449        126.53358        87.27871
126.33856        125.91301        110.16086
125.84787        125.82200        121.81906
126.37691        126.03305        141.55561
130.41057        128.36695        95.93745
125.94033        132.84160        147.48635
125.65992        141.40321        136.25583
126.13434        138.43759        141.05594
130.13128        145.30617        106.03376
126.28093        143.92334        110.73168
128.83973        145.72335        145.76898
126.13845        146.16246        151.17483
128.23418        145.49208        155.49597
126.38440        157.23270        131.11223
125.66864        154.80908        141.31920
130.83406        160.17500        152.23853
126.19791        160.35523        135.93015
125.83762        167.85429        126.03338
126.12383        169.64380        132.92622
125.68042        179.97821        154.95964
127.63781        181.19016        118.48864
126.27134        180.54760        135.50709
125.94927        188.31504        131.11957
126.19127        192.55665        145.69613
131.27644        80.90440        135.42002
131.12161        81.60750        151.22992
131.47567        92.68467        120.04277
131.05781        97.91226        134.48843
131.63982        106.89342        94.04249
131.39888        107.00146        141.00122
131.76706        115.95934        147.73908
130.26746        118.14241        138.09912
129.94361        120.36403        108.64230
131.01974        120.14530        131.40033
131.33555        126.05965        165.48851
133.45369        131.49676        107.97818
131.00369        135.74983        85.47923
137.36075        134.05143        156.46086
135.86730        143.52888        141.90626
133.46228        142.30603        162.58559
133.55682        145.52058        131.29043
131.38622        149.24193        141.14112
137.48874        151.17156        155.52661
131.00117        155.03042        145.19360
131.48195        159.37666        129.82571
129.97556        161.16714        145.88263
129.83792        160.94206        160.41431
135.05977        169.73839        129.13713
130.39993        166.37363        153.10621
131.47160        170.72391        140.95848
139.54695        169.94325        151.98116
132.97757        176.34131        153.64271
133.47717        181.59233        144.69554
131.36381        180.83286        151.36830
131.20717        188.33640        120.58418
133.62641        186.00069        135.73294
133.55124        185.76238        152.34840
131.35220        190.07989        125.93689
131.35577        188.39105        131.29639
132.61215        192.33065        142.73383
134.02146        75.67790        145.77501
136.34953        93.99809        116.25159
137.98678        91.34313        160.68214
139.98917        102.09608        96.63110
135.77633        110.34232        105.16835
134.25801        118.02531        106.07304
137.39550        120.22152        99.37224
136.37255        126.37933        86.96455
135.51460        131.14136        87.43031
134.03398        129.88927        100.99518
135.36848        131.60958        118.36106
135.78140        131.89097        125.73528
134.22274        135.82229        135.84645
139.37513        140.26758        126.83319
134.18716        141.42240        135.84828
138.95330        147.92424        116.49439
135.35890        149.03934        126.37897
135.82074        149.38590        95.23653
136.15594        151.10145        137.72750
135.90152        155.43917        131.54888
139.35929        154.13864        145.43734
136.27079        161.32599        125.61157
139.93136        178.40267        133.98929
140.28861        176.82390        143.40163
135.24581        180.80443        124.36184
135.29856        185.97795        125.78544
140.93250        85.43979        131.60839
138.84264        97.04891        159.40000
141.42622        109.37625        102.24911
139.31222        106.73484        151.22812
139.63092        116.01611        96.19274
141.53165        125.52902        106.63414
141.14078        128.87494        86.74546
143.64313        135.19432        116.71936
141.40850        128.82716        135.34673
140.93785        141.64919        92.43856
141.46697        140.99792        131.30595
141.49484        147.05897        132.10955
141.31251        150.76923        104.50542
142.68064        151.27858        125.91241
141.30270        162.53074        120.88951
139.68564        160.74732        131.61884
144.05059        166.86888        131.02954
141.67312        167.03890        136.02354
141.04999        166.91822        143.59031
144.66948        184.61577        134.05560
141.23991        184.66286        153.70661
143.87239        190.45315        139.03689
146.82167        104.38401        91.99088
144.91089        101.23006        113.11184
145.65519        100.43032        150.68097
146.94063        108.55170        106.07800
147.26095        116.17029        106.25753
145.61365        120.25777        89.23908
145.55771        125.99561        88.19199
148.41037        144.07079        119.22281
143.92308        141.34151        151.41203
147.07502        148.25024        101.20758
145.48412        146.28796        106.02022
146.22297        150.71273        110.20207
144.10745        151.30464        131.33658
145.18217        156.66577        135.90039
145.84891        158.84031        141.10974
145.41585        160.66666        125.88297
147.68839        171.08733        145.81374
153.30530        99.39444        97.72977
151.03404        101.06972        106.08935
151.53495        115.42260        97.88143
150.81397        110.23012        155.34045
154.41024        121.83982        114.00388
150.64728        120.81760        131.26765
150.62784        125.32894        106.03522
152.40675        133.94298        123.34016
150.80095        134.13978        90.94340
150.91329        135.67492        95.90976
152.72609        141.36195        126.01810
151.18271        146.05740        94.72651
150.72069        161.01781        146.01755
153.13380        166.06325        146.69358
150.88820        176.82664        144.69000
153.17623        185.12989        135.43978
156.40854        90.62019        146.12361
160.26314        107.86504        104.48162
155.47129        104.78123        146.05100
155.34405        115.99942        145.79967
154.98558        141.17154        100.44250
155.29664        145.46850        111.29546
155.39806        150.61438        104.74149
160.69658        101.48483        110.36688
159.95609        133.46334        134.08623
160.63019        145.99237        104.49005
160.67059        147.08539        111.13978
166.73821        96.95853        121.00530
166.68675        100.37653        116.50183
165.26541        113.83516        136.17008
169.94269        120.70081        106.81403
168.60731        120.50928        131.74831
168.41552        129.07667        101.40577
166.41015        131.25145        92.17561
165.41115        136.68697        120.64063
166.06582        143.90219        95.16974
170.11831        101.40767        130.11427
170.60180        106.80365        124.70854
171.35032        125.61191        114.64340
170.34679        128.92878        125.44865
174.64103        116.45512        126.57206
176.03448        119.86148        115.92985
174.69469        130.99377        121.80804
