120.09168        217.79673        253.53229
125.86779        226.75206        247.04472
128.86914        185.26708        252.77717
125.31182        197.31017        253.09377
127.72378        197.12393        263.63961
127.69415        198.15004        243.12059
125.76351        208.29744        248.64113
120.83634        208.15239        262.97089
120.53942        210.48357        245.44079
126.60436        218.30300        267.61033
134.62016        230.00802        271.98529
136.72856        245.13722        248.09416
131.52576        241.34711        262.81443
128.72332        263.71359        181.77263
130.41743        164.23578        252.24567
142.02398        159.31017        247.82934
135.12765        168.46476        258.51073
129.97144        173.50310        253.32610
137.05630        182.44496        242.34790
132.29063        185.86512        263.22013
129.71617        185.24815        270.70945
126.47055        206.29343        235.34608
127.48956        208.03244        263.99217
129.83308        207.62378        272.02737
129.32376        218.56144        233.95875
129.48905        239.35551        272.25972
125.84984        250.62587        180.96887
128.12083        255.36505        175.79496
138.64571        265.95967        175.37172
131.20723        147.71791        95.76459
130.98923        158.84433        245.40193
130.85364        155.34806        260.66812
130.98067        156.79414        267.78757
130.58138        172.80237        241.97826
141.07693        172.86202        273.86436
131.01149        176.07841        270.69162
140.34153        184.88378        273.43387
130.61010        188.55971        98.72673
143.52912        197.21940        105.39298
130.97935        190.40899        235.47005
130.87362        197.78831        235.42984
131.17725        199.85047        90.28847
130.90167        200.63327        272.35667
138.51891        210.33929        232.70369
130.66446        210.26529        235.20030
152.74714        253.05159        180.89760
130.96954        250.63734        170.63676
130.51100        255.48717        167.49122
130.38909        255.55574        183.23632
130.59508        270.94643        173.34538
141.95914        145.10195        123.48209
143.22294        154.43127        272.83082
142.20888        162.85874        272.77000
137.88806        173.17318        242.64229
140.10999        185.87795        97.89533
147.93555        191.87021        140.38108
139.81740        197.68569        236.15624
141.03938        197.12868        272.15787
133.15973        200.20603        250.71512
141.25979        208.69272        240.96641
136.91708        204.97256        245.95353
136.58246        205.83767        255.76249
137.57323        204.80354        263.38176
140.37695        208.43320        273.80744
152.60062        225.50695        247.24960
140.70927        210.96212        265.82719
140.42225        218.68775        252.66864
141.51287        220.85207        263.03785
141.35686        218.19181        274.09978
135.60295        220.04269        280.73794
144.46609        247.70536        273.44718
140.98851        250.86755        163.74463
138.95716        252.54234        262.80792
143.52586        128.23023        97.02389
142.79597        130.75325        87.87860
143.46657        139.39578        96.31891
142.06923        145.25886        105.73154
159.39890        140.69070        75.51918
142.77183        151.81581        99.25063
143.56029        152.36610        108.01465
147.62816        152.99327        129.15271
142.87565        163.68437        100.64088
156.56263        164.21800        119.65901
147.27583        163.15256        136.67978
143.32234        174.70548        121.21995
140.66989        175.83849        281.02577
142.74642        184.87210        108.05642
150.96083        189.57039        158.67872
144.47055        205.93216        107.74594
144.07974        226.65174        251.76457
143.89185        231.38946        199.84954
138.21933        235.41638        252.91064
143.76740        242.86740        206.76919
142.90620        252.13220        244.00545
143.56992        260.65211        253.17546
140.66850        260.32072        260.77279
148.85341        121.25501        114.86032
145.35246        143.87990        271.81247
144.95399        145.24353        245.06373
145.36399        153.63471        117.27760
150.67385        153.69988        141.06408
152.68849        154.44412        234.65249
145.34718        165.04357        280.86773
145.32596        172.98082        146.80890
145.94091        175.66379        97.24091
155.98709        169.85424        252.70074
152.27886        185.32345        263.11515
165.00745        183.64705        140.47836
145.00698        179.42662        255.61948
151.64039        184.59089        284.28815
160.59318        183.45720        242.42564
155.23485        185.95827        253.20506
155.01265        204.41696        278.54119
145.49778        215.94940        250.15805
157.00487        237.33758        225.80142
150.02330        231.24582        185.55448
144.38828        234.90998        267.18463
148.05857        240.70425        198.16731
145.40319        240.37570        235.37455
144.72503        245.23543        170.56346
145.28007        248.02766        181.01092
145.58931        250.46290        275.21779
154.90047        119.36005        128.97566
154.22080        128.35828        108.06536
155.57426        128.52241        118.16275
153.67460        130.54324        86.44275
153.10664        130.38395        98.63146
154.73387        132.56161        72.68236
153.17543        142.12889        98.57670
152.48070        141.27194        253.42055
158.03222        140.49462        268.56793
153.41852        141.40839        107.32286
153.40180        142.59408        272.20369
153.88373        141.28817        117.86373
161.22833        142.27169        125.62419
151.21595        150.55370        75.28173
152.92912        152.19361        108.65176
152.61560        152.70840        118.12094
152.59412        153.41614        274.09921
150.60184        154.73186        99.61106
152.48859        161.72529        152.81719
152.75254        165.75869        140.41703
153.06705        163.11569        242.77584
153.75771        162.29960        273.44591
153.39577        163.52728        282.98582
153.45462        163.68182        232.50277
154.08972        163.06264        263.49874
157.38527        173.50141        127.97400
153.02612        174.46521        141.65712
154.76092        172.98032        153.06415
152.91836        173.29057        232.70154
155.53944        173.17676        263.10759
159.71516        173.12678        280.20016
153.65674        173.32702        284.54424
150.96551        175.63832        86.16302
150.84456        178.39335        100.45323
150.45819        177.69459        108.02702
152.59849        184.81870        115.94890
152.35069        183.21557        153.62542
153.73297        186.23852        231.76593
154.80096        185.89273        273.85889
158.40571        186.88442        107.55687
161.86542        205.69122        234.96830
152.14387        198.08377        243.96599
152.02478        198.03321        254.17919
158.16434        199.14493        263.23613
152.61609        198.50357        273.68422
152.75556        217.56191        252.41294
148.78652        209.96737        258.03721
149.32760        214.56135        110.18918
150.99663        215.56316        235.32365
157.71850        230.40802        278.39354
152.94933        225.98896        140.65312
151.51851        224.09081        152.37746
151.56198        220.83139        163.83081
153.00185        228.03955        173.37586
152.28700        226.77190        263.11665
154.15985        227.38018        128.81632
158.61109        225.90469        159.10065
152.80895        235.75295        259.23211
156.15456        242.25753        218.84776
153.01388        243.26900        271.97568
153.82221        243.59282        165.24398
151.16738        246.72890        255.39134
152.68838        253.34631        162.56554
157.29769        251.60063        252.50822
159.71279        262.48183        261.08294
152.17215        261.14647        165.28223
150.97877        260.54608        245.00823
152.43641        263.68689        253.43144
159.71474        119.59513        144.98229
157.82568        128.84416        127.59583
160.46281        128.54524        140.63741
155.01946        131.10165        65.55808
155.27079        145.29558        136.92863
161.33136        156.48792        63.18654
174.47895        154.07528        90.66230
155.37699        150.78217        280.88010
154.82325        155.38107        75.18235
157.31918        155.34709        135.94607
156.93638        160.49101        70.66096
162.70996        163.12031        84.58111
155.46543        160.66342        136.02533
174.65847        191.05260        83.41867
161.25215        175.63205        111.30001
160.72607        172.36938        242.84891
168.58824        174.05267        98.11379
155.29988        186.05722        95.90541
158.92861        192.28354        153.36465
157.92043        205.52526        253.13850
161.97625        209.45015        262.96048
155.52167        219.04995        208.79443
154.85335        216.03657        265.35728
159.46706        223.36299        199.89817
154.98146        220.94045        232.72624
156.83247        231.50167        115.85020
155.63864        243.80905        186.78340
155.26240        244.50563        195.59608
155.62286        260.36561        185.57115
163.27539        122.47879        172.67358
165.64038        120.12043        163.24013
163.56666        122.62807        185.49630
162.50258        128.26364        152.95739
163.51454        128.05019        162.95044
164.98617        121.78280        198.70818
163.67448        138.89641        105.55637
167.17556        135.02021        259.49201
163.64909        130.56390        264.33913
163.62417        140.63117        243.02350
160.84489        144.11562        137.03359
162.95734        148.49586        115.92999
161.16451        145.12972        236.67449
168.58522        153.12060        72.66986
162.32698        152.71125        106.89976
168.68354        153.70123        139.74142
163.50327        153.40172        233.38787
163.04003        152.86787        241.99201
163.51192        157.92947        282.81938
163.08170        155.14734        120.28573
171.08723        152.80994        252.46718
164.04256        153.97762        263.17088
164.10637        165.42046        153.24008
162.61004        162.74115        232.49645
163.15845        163.64064        242.81422
168.33291        163.19562        253.30581
162.82585        163.35613        262.90866
162.82511        163.48976        273.02591
165.12642        180.45454        133.33841
163.59370        175.53175        231.99267
163.37790        187.90791        163.34271
163.26521        186.13425        285.13915
159.10844        190.28700        170.43024
167.80874        198.26596        109.68120
163.09695        195.61204        141.96530
164.30548        199.38679        243.12634
164.06422        198.78192        252.70880
163.37567        199.80249        273.43863
162.87328        198.61490        286.07911
170.49348        205.50561        121.92523
162.95340        208.23900        283.00179
164.55293        210.47985        68.38323
164.80583        215.54632        102.56788
160.25380        216.05217        240.35199
163.56737        218.19644        284.38426
163.32076        223.42917        118.46452
162.40405        222.00931        128.26835
162.18033        221.56853        140.08691
162.85943        223.78953        207.26869
162.40014        224.65659        273.37694
165.24367        224.88013        107.97889
167.31976        230.93205        181.99109
163.01682        232.39351        217.35205
163.25057        234.35201        108.24362
162.20119        233.54545        200.00788
169.69462        233.98239        249.14269
160.76997        230.40745        265.75985
162.60427        234.29961        272.81623
163.24201        235.04593        173.19872
163.16901        242.92850        165.11821
162.31944        241.69863        174.06009
162.56202        244.50175        242.35730
163.20009        242.04164        250.54515
163.35514        245.61258        263.23600
165.05101        255.31834        171.27607
162.32885        253.59334        195.56761
163.26436        252.77612        235.22546
162.74714        253.28810        242.46478
163.11858        252.87686        272.55168
160.49952        260.39506        165.96812
163.26249        262.02894        243.64835
165.47351        118.07755        209.25064
171.08229        120.70594        217.89347
171.31856        128.90821        203.86716
178.06967        134.94028        218.00957
165.82187        136.21339        208.57927
169.78612        157.91716        215.78517
165.27668        160.09377        203.68403
178.18049        167.25243        218.42802
165.86443        170.64294        110.50521
181.83737        184.04140        196.74373
165.41310        177.38512        218.97762
165.88765        175.06586        265.36299
170.24671        176.33028        273.30278
180.46659        184.47544        184.16277
176.69199        185.24456        252.07580
165.56154        185.78495        105.79248
171.42705        186.12943        218.29391
165.28799        190.12507        230.70887
165.47470        197.67377        85.72887
172.71199        197.09706        96.88929
165.09566        195.75550        225.93982
172.62087        206.94668        274.32309
173.55593        211.55596        282.05209
165.85377        212.43590        253.07459
182.94842        206.18333        139.39452
170.14691        217.82934        232.34807
173.47205        219.60840        63.78114
168.55930        222.94492        73.27599
175.75052        229.24384        88.38301
165.34968        220.91741        235.07514
169.05604        230.97720        97.18516
165.49967        235.34292        165.21291
165.49864        237.07317        208.04038
165.65027        235.49967        265.89623
165.49900        240.43510        255.22626
166.57149        270.96473        263.58429
172.16757        120.15889        186.05454
173.65901        118.63661        198.15185
174.00597        118.32197        208.44145
170.92329        121.06071        173.75261
173.25697        132.93357        252.26181
172.57919        130.74914        271.75512
173.15308        141.10236        242.04507
173.58790        144.82459        279.15950
173.03598        142.54234        118.92186
174.74745        147.10565        97.63213
173.20840        145.02633        108.38693
170.95379        153.86637        63.69239
172.13521        154.12843        95.01508
174.45393        155.60197        107.98060
171.96683        154.48182        117.57082
173.35679        160.71099        236.49669
173.28546        153.05470        242.05036
173.18679        155.91552        263.57908
172.48082        152.27802        273.38636
174.42404        152.64907        208.97050
174.37761        165.34128        208.92615
173.22178        162.07306        274.28888
173.38405        163.05588        286.97006
170.74455        165.63833        95.07430
170.89855        167.20779        108.58031
174.76093        164.55627        118.56079
170.72906        165.84594        226.35591
174.36065        173.62216        181.11492
187.03648        184.19776        232.88884
173.13364        180.83346        286.23447
175.80381        178.13499        108.54375
173.70953        177.45069        123.54650
169.09289        175.94166        245.11854
172.39744        176.11955        262.67029
171.18760        183.33959        210.10599
170.68531        180.86954        225.86286
173.25308        185.49875        106.03083
173.66536        185.24224        146.04520
170.40210        185.71232        230.10212
170.76710        186.24761        275.17952
170.56223        189.29319        109.84690
170.79947        190.06826        118.77037
174.10876        197.32598        105.30913
171.56809        192.75677        210.79560
173.46459        195.75597        226.23181
173.74299        197.79193        286.68572
173.44324        201.37751        64.29205
170.65999        200.01901        115.59229
172.98090        204.77495        253.02481
173.26504        210.48810        73.26340
172.12853        208.34214        99.31927
193.14902        209.64135        116.58428
174.24882        205.63329        242.92617
172.70647        206.01330        262.44691
173.64284        210.90381        57.49906
180.65227        218.33783        84.89422
170.85787        216.18247        99.90111
171.17306        215.97185        105.96636
173.47886        214.66224        253.08739
173.48967        215.33901        263.15160
196.55491        230.99771        182.35533
173.28063        222.14387        200.04718
173.27116        224.58988        248.49907
172.88970        231.71204        209.71104
178.96506        236.12434        277.66543
173.39597        232.82931        165.36955
170.59338        228.50071        288.54646
173.17310        240.21753        185.41723
181.26517        232.77255        197.52087
174.66123        235.99486        242.50587
174.86423        244.22668        170.26341
172.68792        242.26228        208.40197
173.28160        242.74587        215.86205
172.63840        243.30770        235.05785
173.43487        241.16955        281.30377
170.68368        250.54351        195.34146
173.61167        258.65793        243.26166
173.46833        252.63190        272.35925
170.66403        255.89623        245.28712
173.35608        255.21539        265.71177
183.27619        258.13369        239.60164
173.88050        263.31350        264.25583
185.09380        123.81402        105.45612
189.07369        134.43700        148.70088
175.38827        125.93146        175.96223
176.86391        128.66338        182.75782
175.56586        126.32777        255.22951
175.53460        132.61116        117.92089
175.55246        130.45510        130.98695
175.58391        130.55632        243.13354
185.50075        143.40570        128.84392
175.89028        136.04417        165.98389
175.51911        145.17375        235.05427
177.19889        163.21864        126.09008
181.77122        165.53740        109.89279
176.07890        165.00927        181.01265
176.00527        165.54902        192.11137
175.62912        165.32600        265.50541
175.40499        170.39465        120.23600
187.28968        178.90608        132.22073
182.12140        165.70308        173.02798
176.62160        179.85602        116.96923
186.88977        181.31084        258.47781
175.33128        180.62361        295.23793
182.06828        197.52795        130.21285
175.59631        189.70017        226.25586
175.28966        191.97102        275.58635
175.38949        197.94595        73.25533
176.56530        196.71386        210.70915
183.64311        198.05633        217.36150
175.24722        195.60107        241.03498
175.69221        193.85172        260.56204
175.29079        218.81962        108.81658
182.69727        217.09005        236.19578
175.77820        220.23279        97.95397
175.86008        224.79391        240.54227
175.36293        235.31469        185.72257
175.79777        234.98887        235.43085
194.95570        122.46516        94.69932
185.42986        128.30299        208.12065
180.74351        120.68507        216.02435
184.11811        129.83205        128.71272
185.19011        134.50109        204.83216
184.93829        131.77442        252.89572
190.57830        131.24021        263.18335
180.72750        130.60231        245.55094
185.57124        138.56850        276.62869
206.30905        144.25915        107.31229
185.45036        140.53418        117.72010
185.89581        140.95807        243.02350
185.84549        152.03480        239.11876
185.63068        148.83411        252.38540
185.56673        151.46466        273.67123
185.61286        149.40894        96.61490
184.54248        152.32162        110.45255
184.16312        152.38881        120.75614
182.00279        150.56841        208.29223
184.76151        153.52706        219.23578
185.73169        150.47216        263.26226
185.86180        159.21727        287.08630
188.46693        167.95289        207.11265
180.94299        155.62257        228.38282
185.63894        157.53697        252.98541
184.78413        158.67334        263.20300
185.17210        160.40712        273.68741
186.22813        163.77689        186.06977
180.98637        165.24381        195.42921
183.36562        165.78750        250.53059
182.86715        173.30724        184.66516
184.91181        173.62625        287.12172
184.56762        172.74786        127.62190
180.65904        174.81536        145.48234
181.74484        180.87256        174.90112
181.86379        175.19018        276.01885
189.73371        185.91960        213.49183
186.07490        185.55842        288.24388
180.88410        182.52409        146.76035
185.91801        185.12415        273.84903
180.99995        183.72277        299.55192
184.70115        186.20071        99.43142
186.03964        187.40064        107.44146
185.38825        199.06487        64.30103
184.20149        195.81728        79.22692
180.95636        195.55971        108.97251
181.06465        196.06646        245.24139
180.54676        196.31660        265.66461
182.92418        193.34088        275.53518
185.48195        197.81035        286.00641
189.73427        200.57432        107.92800
183.03221        208.04553        105.75038
187.22423        207.00140        242.82368
180.88812        206.10428        252.90505
180.92688        207.77553        262.42688
196.64016        207.87970        274.02746
185.99871        208.24954        285.94375
186.18629        208.61750        97.97637
181.69736        219.08874        74.31336
186.08207        220.58618        98.33649
185.30395        221.49267        118.45510
187.26124        221.38234        127.61034
183.85215        216.12912        261.77453
185.99961        218.37762        273.67277
185.06973        217.06824        283.91988
186.50931        220.05838        108.45849
185.25101        224.41288        204.44573
184.51055        225.59147        250.67498
185.62305        240.37253        267.72636
183.44953        231.63022        274.06420
180.80882        225.25792        292.85255
180.82723        232.08350        165.60665
192.39568        232.83493        210.39410
185.96649        228.34684        216.03376
186.62020        231.23116        232.36255
183.90398        235.37932        253.52677
179.79425        234.89546        155.77374
185.18746        241.48069        236.55638
180.85042        240.64071        175.86730
184.58612        241.63327        215.78778
186.35382        253.29520        263.64304
185.26687        262.78088        257.72410
185.01022        140.75001        110.55998
185.95293        153.35398        153.45661
193.20476        158.29985        108.27975
186.21548        161.07022        148.67856
187.15451        160.58818        160.75378
188.29277        172.49673        163.08430
188.82436        172.46265        173.21171
187.53858        172.79834        270.64168
190.26757        174.32293        85.71465
188.77660        174.98459        97.14591
187.90814        174.52847        107.27296
187.39620        174.08704        118.83286
183.91296        196.21293        240.39252
185.22679        200.31471        70.87146
194.18021        205.27665        151.50463
188.74789        208.87307        131.69083
188.99675        208.37328        263.58060
185.22608        218.70094        216.28720
186.98119        215.92497        252.99491
188.82884        220.23151        150.71253
190.06535        126.55994        126.09269
190.39233        130.74569        245.29660
192.72696        139.80848        110.16769
197.34855        144.62270        87.16309
189.50749        139.36213        259.16692
190.62872        145.26625        210.17076
191.56170        155.50376        231.05828
191.30521        160.63623        126.45903
194.25766        165.00911        163.90741
193.31182        163.57309        173.17951
194.55428        172.41406        184.09251
195.63030        173.17220        295.67784
190.36389        175.59952        281.25400
190.19478        185.50435        175.60620
190.03867        190.42831        240.76878
194.95737        197.97414        117.83607
192.07151        195.46383        248.17136
190.09853        205.61327        75.38313
189.64506        206.32934        252.20794
189.89734        210.41117        71.18395
187.86586        215.79548        71.22575
190.42859        214.25771        154.60056
189.26219        216.96280        242.09188
194.61187        219.54057        180.53611
189.79596        225.89673        87.92870
189.94056        225.77738        105.53609
190.55240        235.38241        270.80306
199.50825        118.54022        107.79773
200.13749        120.43546        116.11025
198.97334        128.66216        107.98039
204.76099        132.85305        119.98747
197.85330        129.54156        129.15549
201.04151        144.64962        207.41046
201.66932        161.23008        236.48450
198.18117        138.64537        275.57890
195.34158        136.32469        105.49047
197.95969        140.64707        117.90223
199.95606        140.53728        128.69454
195.52559        135.94042        158.72925
195.30461        138.72252        260.52700
204.32672        163.17907        86.12021
198.79611        152.05465        96.78618
197.06808        151.97204        117.90937
198.93098        151.16252        138.21296
204.43998        153.63667        238.44456
199.03920        151.36031        252.97093
200.37622        155.71263        263.72084
197.89734        153.55158        274.73307
197.54441        153.34308        283.54573
198.12370        164.27724        218.16525
197.68917        163.39545        252.68242
205.53975        169.74969        263.43358
197.84530        163.23951        273.34675
197.89545        167.73876        286.48956
195.15464        165.85421        100.50133
201.97281        164.83351        118.77432
201.24340        170.61356        154.89780
195.66380        165.95813        210.50495
195.25824        172.59814        75.62482
197.33553        170.66713        108.98528
196.14933        173.19080        197.41663
196.81162        173.91451        208.06453
195.36741        170.95699        234.52435
195.28657        170.52739        240.13468
198.14003        181.73529        114.91269
198.91235        180.91702        153.49372
198.29508        177.98486        170.27510
198.75064        184.43863        125.72618
197.90863        183.44255        183.88306
197.99111        184.76891        196.69897
198.03672        185.69393        251.90338
203.38535        185.80147        287.93471
196.90603        185.49307        99.38322
206.84594        188.97131        90.21183
195.43325        192.83184        95.41329
204.73797        185.71755        218.59105
195.70680        190.23402        230.81775
203.48269        199.60361        85.54143
199.85401        193.74886        135.94113
195.21786        198.80686        142.38697
198.19691        198.10086        287.16469
195.51431        202.71304        75.08779
197.11497        207.51996        127.56522
195.77547        200.62689        245.44787
195.14837        200.71778        250.64410
196.76911        210.00290        253.16409
196.14228        205.58185        95.23393
198.38554        207.56267        141.10664
198.10453        208.32070        242.84308
196.74285        211.22511        262.94534
198.02598        207.96698        285.88441
202.11928        212.51223        107.50970
195.27028        210.11307        115.63869
195.50209        210.53327        150.90509
202.53988        217.22172        100.79784
197.27068        216.77231        128.87317
196.89228        217.90674        138.25793
200.59174        214.86465        147.74202
197.61254        218.24126        235.06059
197.98128        229.76388        273.93202
198.21994        219.47624        173.68416
197.63212        230.65268        232.47482
199.25975        231.31741        241.72866
203.83170        231.64003        259.40380
194.03528        231.96854        95.50178
209.68757        230.39179        199.43583
203.49533        242.93495        232.58921
195.70952        241.79262        240.29286
198.52905        240.80370        252.67343
197.70495        242.40854        263.54909
207.39562        255.05033        239.20750
198.62988        253.03090        241.81527
197.31221        255.80825        264.61140
198.51375        252.03709        270.76187
198.18765        254.02779        255.89438
196.80943        260.92365        241.92913
197.02655        264.68486        253.37964
200.28179        120.40202        127.47394
199.79596        137.33516        150.55075
200.37870        150.41642        76.02918
203.69504        150.70715        128.81491
201.13519        160.68734        98.22169
200.37762        159.44808        128.73741
200.21709        165.24472        109.82021
200.59558        169.48016        126.29718
202.01961        171.19778        100.41802
199.68041        170.52681        215.47967
199.36019        173.92166        242.36007
205.47949        173.23302        252.96407
207.69386        170.43448        273.25039
198.34812        175.53233        189.99016
199.88361        188.09760        108.58169
199.78582        185.09472        240.35128
206.90447        194.74413        117.91070
201.29068        190.26482        236.46682
205.12746        199.60537        127.02253
200.57866        195.03922        240.76722
207.69528        192.94279        253.18070
206.34731        198.62723        263.69042
200.37016        198.07179        273.42721
207.84437        218.91397        181.76776
207.04567        235.52689        240.79292
205.32513        121.05756        120.23489
205.34949        120.96300        126.75852
206.67966        128.20251        126.58889
212.02028        143.70501        253.16738
208.24292        140.37806        273.02426
209.35422        141.91866        98.83948
213.78161        141.41439        263.26024
205.65931        140.52660        89.71511
205.75582        140.80169        205.53945
212.63772        148.33476        281.53243
208.27056        150.82296        88.67409
204.13020        145.24073        110.85884
207.09844        151.55907        118.95131
205.71299        144.51212        144.77921
207.98541        153.02559        282.96748
210.12006        154.39922        128.29095
205.84879        154.87264        140.65050
208.85873        161.70372        252.57699
205.94167        161.61785        155.65542
217.52800        171.51724        282.24314
209.40597        163.48051        148.12374
208.82203        164.23144        160.48299
205.59188        165.49682        218.28986
206.59567        171.85367        108.49395
213.73062        172.96384        127.04338
209.28395        172.58624        241.31886
205.84577        179.97269        97.66313
208.18400        182.33130        108.94904
207.97528        181.83609        118.57665
208.12895        181.45630        145.60821
212.46356        186.12600        161.23419
210.47334        185.29820        263.33258
207.84431        185.12988        273.52426
205.33943        192.08648        110.13026
209.09930        187.90346        130.32632
208.28440        197.48279        234.17894
209.57675        186.22915        243.21992
205.56688        195.78197        75.61401
208.85518        195.44723        106.24005
208.23779        196.18458        142.26409
206.62528        198.35284        242.33781
208.58862        198.01520        273.12806
207.72958        197.59801        284.93725
205.20674        195.34021        295.12789
206.95751        207.73864        252.93276
206.55485        207.19454        262.71600
207.75462        213.48227        279.69365
209.35454        207.47467        98.55087
205.74597        208.44755        130.70570
209.21700        208.39752        242.29798
209.66772        219.40768        172.72905
207.76600        218.40935        239.42964
207.37081        220.52138        199.26380
205.72672        220.15825        261.37506
208.70178        236.00114        175.52882
205.78009        226.21690        248.83884
216.25119        232.77426        267.90353
207.61615        238.52641        252.08865
208.47040        261.09806        252.53745
205.50329        260.71100        262.10845
215.99321        145.32413        128.90926
210.55754        144.99556        205.84028
212.28418        145.03210        245.21150
212.83565        153.58403        68.67207
210.58537        153.27608        144.95573
219.30948        156.85202        153.20185
227.82993        166.76009        67.66931
216.55568        161.48177        72.50786
211.87638        163.44793        127.95898
210.10821        163.16811        138.18590
210.31843        173.20632        95.42407
215.55613        166.71882        118.61448
221.55977        160.56251        139.44538
216.96510        192.58009        237.57113
217.16925        189.94992        102.38617
216.53515        204.76475        144.57572
216.62720        216.30626        208.64559
211.58545        215.48584        248.88631
208.16358        251.01445        230.44142
210.26555        255.51521        253.03318
217.99161        143.75840        117.46875
218.93883        143.46540        253.51539
215.84650        140.98434        271.04670
219.10061        145.04894        151.07367
226.63006        156.29898        213.20605
218.65891        145.26538        273.86932
215.87328        150.74516        132.06436
217.66698        152.61369        244.19388
219.74126        152.30115        263.77042
222.08220        153.19523        273.60286
218.64162        157.59343        100.59315
218.08748        164.04440        88.00122
218.71185        162.36057        107.54451
219.22172        162.16792        200.25045
219.30388        162.58786        209.26642
228.01262        166.39697        249.19374
216.14987        158.61612        263.39253
216.17719        159.37006        270.98607
219.81930        163.01347        282.73197
215.80367        165.47384        235.35829
217.72473        170.96397        73.61279
218.18388        172.94289        88.33982
218.16697        175.51308        107.48965
217.33988        173.92770        235.28731
218.20762        173.27485        242.83696
215.96490        173.38618        252.95976
215.64937        176.75163        99.89128
218.20921        187.28024        126.15422
225.53155        198.44073        122.72967
218.65534        185.59996        242.40512
215.83986        180.79037        255.31414
216.37820        186.13124        273.73869
217.64820        185.88381        283.80892
218.01566        187.26410        110.43280
215.58258        185.96785        115.59372
220.33118        189.26692        153.21241
217.07006        186.80962        251.97242
216.36632        192.04221        216.00305
218.34616        197.82826        98.27630
215.99576        195.91247        107.22593
218.61605        197.36974        116.76208
220.79741        194.70368        163.69728
215.40586        195.55585        260.83550
217.81793        197.50060        281.28381
215.80421        195.37334        288.14223
231.83050        207.40119        97.24648
219.15133        208.43230        240.24304
216.39050        205.33276        250.21117
215.34266        205.99893        265.68020
218.67939        208.64557        274.80513
217.71136        207.77800        281.52008
220.44649        224.46495        242.10436
216.03866        215.55170        262.84819
215.73729        233.38175        234.77161
220.93781        242.91377        249.65215
217.53371        253.11528        252.30894
215.95022        253.40583        262.76487
222.53974        151.04220        78.00312
220.56474        152.22046        128.47496
221.04275        161.03799        250.60616
220.52050        165.54585        116.42507
220.36129        163.51519        275.73563
230.82267        176.36410        201.17495
220.58933        171.18947        271.38366
220.64935        178.16813        117.97711
220.51561        180.61993        270.58045
220.80834        190.39138        210.57256
230.04654        203.39261        197.27674
220.33059        198.76315        208.71238
221.28711        194.41343        218.47863
220.75407        198.52964        274.45979
220.53665        198.38729        106.46165
229.90283        197.65134        211.15412
227.04467        208.27613        209.24340
220.04080        209.98757        252.63051
220.48377        222.02409        251.61896
220.34491        220.14794        265.57086
225.22077        231.33513        252.86039
226.05715        143.81328        115.77299
230.92902        148.09544        107.61098
233.24103        155.17679        92.18451
230.69483        152.32382        118.96178
233.31005        150.34041        128.94126
227.02805        153.52519        253.56550
231.15368        163.81781        263.09397
230.36334        163.25235        84.24385
231.93059        162.90695        118.06622
228.61134        163.20352        128.20667
232.61030        164.40516        198.69330
229.28271        163.48273        206.94548
228.84743        163.34234        272.96860
231.82921        166.93613        106.66945
226.41525        170.87706        116.21576
228.95290        170.62816        134.18582
230.34418        174.70978        119.73434
225.62996        173.97541        236.77901
225.81455        173.63946        260.72794
228.64902        190.71815        243.54793
226.63129        179.27779        250.65330
225.62131        180.96159        270.60529
232.35366        185.43894        270.61782
239.03499        186.12859        212.37717
228.88602        188.79366        118.01731
226.19709        190.62221        224.51514
226.60321        201.21325        151.60175
231.50377        197.69540        253.15229
225.71957        195.90209        265.34895
228.76221        202.00990        275.20108
225.50031        205.55062        137.02403
227.84569        207.16909        143.21639
229.30190        207.83804        249.63293
231.17905        208.02938        263.13148
234.94679        214.29999        200.64228
229.08717        217.24038        253.89654
232.92459        144.69635        95.38608
233.26922        172.42369        217.17955
234.25053        173.34408        227.68556
229.86414        171.74669        240.74259
230.12121        175.52106        245.13056
234.41347        186.72547        253.33430
231.96884        188.98195        108.54515
230.83838        190.30938        240.77221
232.98448        194.73202        225.22161
234.31410        197.78025        262.94125
231.82269        205.34008        183.74473
235.33541        160.49131        210.04225
235.16481        165.46172        225.96368
235.52655        190.44001        175.35858
234.97926        190.48477        224.41512
236.37129        196.18827        185.04145
235.05688        196.42107        217.50547
235.17824        210.57881        200.51874
240.41049        161.49311        65.48685
242.57357        154.83648        85.59186
241.36729        163.57521        73.67697
242.43122        164.40968        85.53613
243.20495        164.60955        98.34859
241.75865        163.97262        208.22401
243.48194        166.57181        108.04105
240.67407        165.86264        115.74538
246.46616        175.27657        222.01081
243.52628        170.23842        118.64765
243.53706        172.11930        127.99821
241.83962        173.42005        196.75617
244.98956        173.22926        208.05198
242.56254        177.98396        147.04492
244.97446        185.08932        163.11961
245.51661        188.22214        173.60193
243.60017        197.24737        197.94108
243.97157        197.08077        207.40370
245.10777        187.65354        184.25004
245.35422        198.61662        184.56688
245.14666        208.12185        188.70061
250.37180        156.17072        89.67339
251.28836        158.51893        98.36789
251.50922        162.09981        108.41886
253.52437        165.46554        117.31134
252.06739        176.64877        138.59670
250.77984        181.90238        152.15450
250.23155        183.36142        206.57077
249.40116        214.50509        202.87647
254.61432        170.63617        118.24268
