126.13998        230.58410        260.31279
134.94818        198.06104        238.46825
127.91269        197.52187        253.22529
128.65563        197.74993        264.17892
124.36806        208.04744        244.00453
120.36492        208.08755        253.06571
120.83270        207.31671        261.16257
123.05325        218.58722        243.02467
121.99177        218.21762        253.65603
126.20578        218.03055        265.87101
128.74017        217.41923        235.18103
120.44457        226.07162        245.07123
132.93703        237.02087        242.17966
129.75548        185.80619        253.17741
143.76883        185.91134        266.27073
138.12585        175.10700        241.54515
127.85697        207.69729        262.79010
139.09279        208.61575        235.40039
129.70596        229.42137        235.14529
131.61316        242.95266        252.29549
138.25691        247.91330        262.99650
140.32601        158.78859        267.19909
130.57112        173.38169        243.01213
130.57110        173.19001        262.98172
130.79765        195.69006        234.03598
130.68819        250.29805        260.87873
130.58660        255.26084        174.50738
139.92526        263.03431        172.83590
142.55803        151.46334        243.39824
143.59727        150.09210        253.54754
146.01990        173.02665        263.42685
142.04190        173.48412        274.26499
135.84602        180.25057        255.50621
142.34164        188.13615        97.52481
141.86276        187.15829        118.98209
141.95770        200.24351        97.47540
137.52313        197.41146        264.76917
141.11740        198.31929        272.52585
141.34716        208.98245        265.78990
140.67109        208.06882        272.38659
137.61465        218.01436        231.71882
140.82394        218.24409        242.74315
146.26996        225.21902        271.74586
140.93116        230.03736        233.89597
142.42546        241.42573        234.87408
141.74600        252.74076        243.12781
143.32486        251.12687        163.11472
141.64082        252.30833        173.47727
142.63521        262.78332        164.18630
147.03993        261.84184        182.32383
142.37165        271.39457        170.74158
143.71701        130.74541        88.64512
144.28194        129.13552        97.41816
142.32577        146.99883        120.42486
144.76209        143.39257        264.73122
141.17630        150.97695        126.12505
144.01779        189.06759        89.91982
151.33040        187.94125        122.13898
143.31859        198.35419        88.22949
144.39768        207.38189        88.60624
138.88903        210.43905        245.07824
141.98097        218.06769        252.59369
143.90914        226.96169        246.71047
139.66493        255.69831        181.49619
145.25158        123.66325        116.69628
145.26343        126.36242        107.14314
150.41096        120.92378        129.69470
154.36377        125.75765        140.89171
154.18013        138.74581        85.24843
145.09456        141.56962        97.16586
144.55958        145.66102        105.61393
149.98426        151.45813        87.07494
146.35587        153.24996        98.69573
150.04020        153.17728        107.80998
153.16850        149.48177        121.87164
145.23962        153.84327        129.05683
145.23884        154.01755        148.67853
151.27633        159.92937        142.70109
145.35854        155.84095        235.19026
145.37857        162.77223        130.67625
152.27773        163.28404        117.92535
151.59931        173.74861        117.87848
151.16377        185.31925        242.70398
153.22988        185.33434        253.20852
150.09567        195.71054        152.95404
146.59814        205.79082        150.73326
145.24313        204.49654        255.63562
144.76484        215.35828        220.76016
155.50586        230.99405        198.08773
146.64645        226.25982        210.25363
159.20975        228.38315        214.67962
155.67177        228.26155        188.97271
149.66352        241.13928        200.22399
145.36896        245.53098        170.95684
144.81147        259.22589        265.81666
150.35491        120.28843        116.03866
155.01654        126.19649        152.75571
156.37587        120.71198        162.77147
153.64936        124.75793        185.05090
152.87382        129.33522        108.32247
151.03621        126.53773        115.75769
155.86132        127.37796        163.09296
154.20820        127.32750        173.03035
154.79327        126.96742        197.92362
161.71739        131.49303        216.74426
153.72976        130.61884        98.62303
160.85449        136.92364        73.59387
153.90106        141.00748        97.70215
154.79152        139.72904        107.70412
159.83316        140.46306        242.72183
153.34115        138.67980        252.71591
153.31202        141.61789        267.89195
153.09432        153.92528        234.20454
151.81639        154.22069        241.54594
153.43488        153.48478        275.89405
153.16675        155.47483        150.45261
152.99472        163.07495        128.27008
153.24794        163.45973        233.13782
153.26934        168.79113        242.62466
153.00591        163.12894        273.34215
160.14939        163.43839        284.50090
153.27415        173.01812        232.20553
153.04515        173.33695        253.04687
152.96781        173.28936        273.29991
153.86522        173.52713        284.37396
152.81868        185.23316        232.26195
154.94547        185.59967        273.39325
162.03077        187.69928        284.90569
150.43837        190.36732        90.57945
152.35390        197.78885        94.28504
153.67792        197.40115        107.48787
153.07449        201.69836        232.58401
158.55167        204.50621        242.90168
154.17718        197.21901        253.06316
152.93589        197.92990        263.10881
152.93037        197.91350        273.35323
150.95646        202.10722        160.62140
154.35749        206.84148        86.43360
153.80327        206.82453        97.28879
154.21446        205.97906        106.73387
148.91649        205.70086        155.29350
153.37396        208.36560        272.94097
153.28058        226.06379        247.99551
152.76522        215.76919        234.95021
152.51566        218.63425        243.40166
159.11111        229.86699        173.25808
154.73084        232.61401        208.26477
153.69805        231.47241        230.89141
158.10561        243.52577        232.41632
152.57872        244.85125        242.18432
153.21503        242.47117        274.09405
153.04933        245.14463        163.16431
152.13191        245.25589        174.13292
153.44484        251.01560        264.68054
153.30825        252.65779        161.03279
152.79327        253.10965        173.16637
153.29815        252.41306        243.33299
153.81401        253.81590        183.32647
151.16418        254.90099        235.62359
151.25694        255.76501        250.49760
152.19722        255.66947        255.45213
153.41545        262.68246        163.48361
153.30794        263.45218        173.63545
154.01464        261.62940        244.00681
152.31423        263.65199        254.16465
150.82594        260.54551        260.34179
150.56400        270.63348        165.43370
151.05053        271.72261        174.35746
158.08897        120.70374        173.28807
155.56242        120.73001        197.98093
155.18127        120.49398        209.57030
156.19142        130.13032        127.57907
161.22529        139.52858        63.10174
155.95386        130.42608        118.18409
155.13181        131.15653        255.46286
155.55295        131.16334        260.60971
161.50559        137.27964        207.73978
155.43560        145.74242        72.90952
155.68453        145.50707        125.79233
162.40790        142.25718        125.69619
155.53931        150.32417        98.06466
155.56536        160.53618        110.87858
161.33479        166.07726        263.06048
155.35165        165.56567        253.05671
163.22731        174.55153        89.00560
155.12128        171.45658        144.95514
157.47685        196.70120        162.69480
156.43138        200.48288        81.38779
165.76882        209.16681        252.67483
161.35010        208.75417        263.43739
155.84059        205.35475        282.47694
155.66540        224.14169        153.76990
155.92343        223.00644        163.65350
154.97740        220.92856        170.80451
155.48350        220.61137        210.33523
155.02941        220.91526        232.89216
164.90683        223.82141        140.84227
155.17833        245.70386        182.36864
155.82308        264.73205        260.27628
162.58346        119.86077        207.75432
161.80838        120.31634        186.54315
164.72423        125.66008        198.47886
160.39718        125.62952        185.60127
163.11728        128.33153        208.09979
172.45425        140.79780        109.02141
164.42996        130.09083        253.07280
163.75819        129.87506        263.41221
163.52577        139.57857        275.08982
168.49153        134.05919        253.28226
162.57784        137.13789        263.47125
160.62115        145.43045        240.45325
163.60837        153.25919        63.46564
172.86952        146.66772        68.99478
177.59287        148.98186        88.91226
162.49549        154.74378        98.14073
163.11613        152.28310        107.22661
163.14557        153.77088        117.45429
163.87980        152.38924        141.34055
163.47780        153.40353        233.24443
163.47934        153.29734        242.49724
163.51756        153.48301        273.76212
164.26329        153.48844        283.44642
163.86084        154.59302        252.49193
163.34930        155.31827        263.16702
164.95990        160.95147        64.62517
161.21547        160.51000        70.83685
162.46436        163.03156        108.72300
163.30752        162.84126        118.52770
164.31406        162.61837        128.28525
172.93897        164.83429        147.31022
165.14399        160.18201        152.51420
163.04936        163.54695        231.48792
163.09599        163.14542        242.82113
163.18078        163.11114        252.98313
163.12782        163.08350        273.37101
163.88298        163.99594        75.72124
177.18862        159.85702        85.91077
161.27523        170.57863        75.70116
163.05129        173.62806        108.55965
163.06203        178.94347        117.85159
161.73643        175.90416        128.04224
163.26657        173.08557        230.97748
163.72633        172.97376        242.71664
163.00267        173.17814        252.88019
162.58654        173.20463        281.85333
163.86672        175.77706        136.50803
163.22094        186.58071        102.45302
166.16205        187.87781        131.93738
163.31849        185.25881        230.87354
162.83067        185.55288        242.94003
162.58644        184.61964        250.48871
159.00446        185.09994        220.19756
162.32925        199.09995        140.24736
170.03536        189.21945        158.73153
161.68264        197.37958        98.46343
164.97417        197.00414        107.71914
162.18331        197.02473        118.08077
162.35455        197.90840        233.58241
163.46320        197.72801        243.19202
162.77218        198.37947        253.51452
162.77500        199.71820        263.51071
162.85095        198.30604        273.71516
162.90851        198.27700        284.64029
160.47906        200.65330        90.59400
160.41150        205.41492        100.65725
162.73862        205.98355        112.14990
159.44961        203.82705        155.22090
163.23600        208.08119        231.86121
163.04629        210.61825        273.80679
168.20679        208.45851        284.77266
165.54600        224.67826        231.88680
164.98660        223.71712        153.18353
163.04514        228.26282        163.08704
163.26669        227.53038        242.79986
163.06253        220.46901        253.05695
160.48031        220.98303        265.94424
162.86614        229.04200        277.95733
162.24440        228.20980        128.02058
160.61802        225.50660        205.71172
163.34683        229.66417        259.61046
171.10650        230.53758        182.51155
160.28319        235.42516        205.41655
163.41690        243.11519        163.39961
164.84867        242.83286        173.01902
167.34177        249.04543        184.82408
163.85361        242.85405        197.14847
162.69394        243.22478        209.54207
165.49110        244.25002        242.00070
163.27115        240.09049        253.03566
163.15734        246.82381        263.66912
163.40773        242.21174        275.14122
162.61273        256.32067        162.56690
162.82287        252.48704        174.92906
162.88387        252.69228        238.63306
160.84071        250.59843        255.35476
163.14055        252.01221        271.70718
161.76861        255.28814        251.52855
162.72378        262.48572        173.00205
163.96545        260.77704        239.52397
163.35449        263.42484        257.08168
163.22188        264.99928        245.16752
164.74702        121.01335        215.51511
165.60511        163.25281        95.29861
171.51957        163.53377        217.48071
165.95571        172.49046        216.90126
165.29783        176.70579        75.90866
175.13342        185.62544        216.20481
164.90690        183.47133        145.08389
167.37455        185.30919        150.37651
175.89271        187.60225        208.19607
170.75934        189.92610        199.16848
172.99364        197.50052        229.64704
165.83181        200.36419        226.34415
166.69135        209.88137        202.33399
165.88973        205.54761        260.50135
165.58183        205.28200        270.86994
170.40427        221.88870        128.76174
168.40381        232.91360        112.00256
183.65428        136.12146        208.23969
173.31343        134.41105        218.75625
172.91454        129.71927        262.77422
171.35270        130.68264        72.34109
173.16210        140.41195        241.58045
173.40774        138.68134        277.18416
172.81740        151.15394        127.83008
173.53407        151.46659        137.30592
173.54109        152.53674        107.68727
173.60488        153.91976        117.13936
173.30981        158.99104        231.21147
173.30867        152.98968        242.84221
173.32593        156.11128        252.78654
173.25779        155.21501        263.22459
173.05290        156.15013        273.55580
173.31675        153.47454        284.50939
179.31362        163.33344        162.41465
172.82115        163.75299        243.23419
173.29302        162.97858        287.73999
173.17641        165.58602        95.13298
173.19992        165.50907        108.12762
179.36255        164.46370        120.23287
172.62915        166.19779        210.46497
174.31680        173.92869        88.14976
173.43117        175.15187        108.82474
170.85265        170.66857        120.44753
175.35563        172.90792        162.58113
180.45548        180.92605        230.93565
174.11920        173.62196        252.54083
180.74564        173.51199        287.10285
187.59155        183.17598        112.84848
170.96865        175.73522        120.56782
174.78481        175.85034        125.82450
170.66480        175.96304        240.40282
172.96075        186.04454        243.40071
182.03325        181.80839        257.55760
171.25605        175.39422        271.01119
173.70007        185.15771        87.40757
174.69675        183.38960        184.62350
174.36362        185.48066        155.21959
173.72614        188.31245        108.86226
170.38183        193.82084        143.64764
174.15336        188.85156        295.60154
174.41331        197.22464        86.25789
173.00890        200.51624        281.44703
173.57555        200.65817        65.09072
172.21703        200.57110        116.70530
173.84216        198.59894        200.08936
174.09775        198.91863        217.22928
172.58274        203.38201        242.93156
172.51153        204.00216        253.01800
172.80945        205.16199        262.77022
174.72923        207.58358        64.95518
185.21443        212.52453        129.53766
173.05624        207.84183        230.23334
172.25647        210.99982        71.50968
172.50980        214.05028        242.85733
170.61683        210.93568        255.53695
170.67960        210.79057        260.56272
183.99125        212.15277        104.90150
173.71328        219.24044        200.01142
174.03285        215.15161        264.04665
173.25754        216.09193        273.29933
173.84502        216.29511        283.59937
173.96710        224.23788        108.30721
173.35410        221.52753        118.15205
182.96683        231.90172        211.76262
173.04840        229.96936        251.71024
173.13245        234.14755        263.33572
180.46958        238.83036        235.66246
173.00924        231.00007        273.19381
173.60562        233.55759        283.00726
174.14058        232.25426        164.86282
174.18698        233.36762        198.82393
172.49319        234.21782        242.95040
181.54776        237.47042        174.09776
173.27799        242.76688        273.15875
170.50849        244.79939        198.05168
172.53466        253.73343        165.41484
173.62745        252.55982        233.89948
173.23440        254.36643        241.45199
176.60136        260.10981        262.91517
171.36587        256.31040        182.43151
170.46937        261.27969        172.56673
173.58703        261.99370        241.51715
185.13456        118.34425        97.71848
207.36479        142.62202        95.08460
183.03501        129.08616        128.51107
190.11262        140.56944        139.53652
184.91590        128.10355        117.37808
175.41165        134.37382        75.19096
173.65466        135.77007        260.93866
175.67135        145.55105        95.06595
185.66893        160.72013        111.31730
184.10837        173.00747        184.97518
175.27348        170.93107        265.14531
175.51479        175.93898        173.09283
175.52287        175.36546        197.78638
177.63564        175.71641        275.77592
176.21097        183.47711        145.10552
182.78844        183.92000        173.83262
175.41849        183.12673        197.80222
173.45696        185.57068        100.08851
186.20130        204.08151        91.32170
175.76730        194.21475        263.35478
179.76751        195.49949        273.91272
175.69234        199.90046        108.16517
179.25335        208.17286        99.60854
182.67855        217.81502        63.44939
184.33250        220.75935        80.59708
175.19529        229.91059        226.49759
186.36105        110.45752        99.31799
186.20030        121.73666        92.24188
185.71088        119.48233        107.97367
182.74750        129.93399        208.84403
185.53306        141.49892        240.78856
186.02050        130.99857        252.40121
185.58483        129.32451        263.13060
185.53078        130.64915        273.17538
182.74029        135.93911        265.36134
185.32755        140.09583        279.49238
193.83334        142.30850        92.57001
185.25312        140.98809        118.39501
185.44066        155.21195        252.67328
180.53515        150.10268        105.65545
180.65063        150.61174        135.74826
185.85934        154.74703        241.94408
185.32422        154.92725        263.09978
185.60874        155.65835        273.64034
185.85895        153.18833        285.23768
186.88312        162.80026        221.28639
183.74259        163.09931        99.75401
186.28131        163.93164        173.32069
185.41569        163.13904        287.62447
187.63404        177.95515        146.82243
183.45997        166.05179        242.01666
188.58130        173.98633        127.69884
184.77860        173.99993        162.44677
186.51704        173.30395        173.71031
189.94689        172.14352        200.70477
181.68855        175.34848        100.31264
185.01938        186.41699        89.56113
190.45680        185.27034        187.60788
184.33612        182.82289        208.10561
185.54892        185.70372        287.22839
185.14604        196.48410        72.98609
185.47578        196.60982        218.83836
184.65767        196.87252        131.85907
185.79691        198.26502        231.09786
185.53186        196.73575        243.48052
185.64986        196.21160        252.22806
182.77660        195.74399        263.09695
185.33988        198.06257        285.79859
186.48581        197.80472        63.32502
189.44255        207.78703        142.58326
185.16280        209.60419        242.31233
185.85766        210.56533        263.28066
186.00329        208.21698        273.58982
196.30970        204.65054        285.39950
184.91846        218.30166        107.45039
185.17239        218.04535        117.86753
185.63594        220.27190        203.34008
186.09240        217.62494        233.32716
186.18566        217.12160        273.81626
184.87842        220.99317        175.34421
200.87163        233.40208        250.04622
185.87237        230.20442        208.02178
186.00652        231.02429        232.40730
185.84069        230.90283        263.14523
188.12482        236.97830        281.38950
185.26027        229.97466        196.95081
186.35827        232.11309        274.10100
186.35424        243.09710        264.41207
186.01780        242.59648        272.98907
185.35424        258.59675        239.68333
185.64634        253.49540        265.00824
186.13800        252.25118        271.36806
187.66520        252.82727        242.46570
185.93770        263.96787        252.88092
187.75859        110.75691        90.54262
188.05291        126.37987        151.64396
187.95103        153.45264        109.11035
187.51228        164.12105        185.20565
188.87496        164.64152        196.67051
191.08661        172.65465        118.49742
188.23955        185.04406        219.09248
187.00594        198.01535        118.95448
184.10010        210.49491        209.88608
185.42736        220.82805        249.09574
190.13617        136.09871        255.43927
190.12526        136.61464        261.75894
191.78380        163.11527        127.21072
189.94681        166.32218        74.16369
192.86476        169.00269        85.67464
193.07863        171.06136        97.89500
190.31923        170.75256        295.19764
198.52961        184.25381        221.57092
196.70299        197.75502        142.12272
195.24118        197.67697        152.93530
193.15680        207.52464        97.95953
190.56125        210.46499        130.75531
190.45506        226.02230        119.76393
190.07812        235.57872        250.54906
197.18221        116.05034        96.75525
204.68847        116.32859        102.48427
198.34741        117.07601        108.23554
200.23153        118.64253        117.38856
197.73514        128.18635        100.20761
197.92599        128.26932        118.14008
197.59847        128.74333        128.48190
198.13636        133.91519        253.15389
197.12845        130.18316        262.50429
209.40848        144.49158        277.02869
198.04525        140.28133        107.42330
199.85571        138.61668        129.38353
197.92270        140.79735        243.73954
209.99897        138.54412        263.62046
195.36325        145.48322        128.04754
195.58952        145.52337        235.52949
200.34125        152.92566        252.47865
197.79168        152.45383        85.12253
197.86605        155.36894        98.02714
205.13722        151.84151        140.65860
198.04688        152.91918        235.41973
197.82758        152.96183        242.78570
199.36904        154.03031        263.50470
198.81436        154.34168        273.35180
197.28021        153.06502        283.96023
197.57905        161.58127        242.41465
197.92176        163.12387        253.02973
197.52926        163.44788        263.68099
197.67361        163.39696        273.61564
197.69573        163.35110        287.06729
198.83309        164.01739        145.38713
213.03667        165.13199        145.18569
197.54922        172.66007        184.36057
199.41622        163.73315        232.41069
196.63336        174.29179        134.20606
200.16267        173.84377        216.95023
197.85539        173.43903        228.10349
195.58010        170.62372        243.26532
197.56505        172.91102        252.54227
198.28253        172.91093        287.96104
197.69443        179.00008        149.99199
195.27324        175.74164        175.76492
205.41560        184.54615        127.80617
197.87623        184.61002        250.52209
198.45567        185.80624        288.45803
197.56309        188.65378        86.21757
199.86241        185.43567        98.57039
196.54227        188.04056        120.86116
198.02530        188.71018        155.44578
195.99401        190.19972        225.52177
197.66197        201.74677        63.28783
199.74237        199.14906        73.20291
197.37615        196.82496        87.16495
197.87793        197.22122        108.93671
198.31039        198.17907        118.50464
197.87602        206.20868        129.24618
196.97270        199.05139        235.35700
202.46227        203.25732        251.28850
197.86190        207.69525        263.50062
199.21794        199.22062        274.61787
200.95494        213.69019        113.28391
197.89234        208.11787        233.12667
200.76778        215.03248        238.78539
198.19672        207.77483        273.68625
197.42344        218.60900        85.89406
195.03668        216.16193        95.92004
198.12549        218.32657        182.04917
197.90901        217.88331        273.76564
197.44616        217.62917        281.40743
199.68685        220.59838        99.11209
198.65177        219.04211        173.31033
198.72476        220.51919        198.60333
207.50045        230.55772        182.39777
197.81682        225.67425        197.42677
197.46730        230.53443        232.73805
197.57721        230.51898        274.95832
195.40356        229.56387        119.00409
222.52099        212.31769        203.56129
197.73392        242.86541        232.92381
197.91263        242.53519        263.28899
197.46774        253.50539        234.36738
198.38285        253.47818        242.33074
199.44557        255.16204        252.13904
197.79899        253.08737        268.30800
197.59455        262.06965        243.79563
197.49815        262.24639        252.62602
197.01182        260.64187        262.19812
203.32446        120.45307        128.77087
208.21333        147.31113        152.97326
200.34956        150.79212        207.66241
206.85961        169.37168        107.82166
204.93710        165.17394        119.09157
200.78062        165.73969        100.41490
207.51142        163.30880        242.50129
200.59534        173.32060        100.33881
200.57019        170.71892        110.38096
208.78199        173.14954        263.34596
206.08869        173.22847        273.37679
200.56978        178.37827        115.62615
200.50992        179.17787        159.01429
207.66695        185.97299        273.50430
200.30791        197.06903        95.21910
207.58218        197.59455        123.85604
205.27193        210.15681        145.37573
200.33817        210.77588        177.51522
205.08201        216.93135        130.83301
199.67039        224.89157        127.39752
200.05159        230.15008        93.94256
207.98559        128.88671        99.29136
205.59003        127.47686        117.39050
207.81156        128.27887        124.85678
207.65339        136.71326        252.82956
207.48044        141.29998        131.82350
207.20478        142.28259        244.37438
207.80592        143.21287        208.30729
207.69199        153.28693        118.78771
209.51444        152.53648        127.82087
209.38284        152.96113        209.18643
207.11971        153.96648        235.29608
208.08525        152.98869        242.84870
213.47054        167.51214        96.96852
208.78815        162.80637        86.63706
209.58011        161.79336        137.10506
208.15756        160.46526        145.34199
208.11667        167.78310        233.13030
209.72436        163.37633        252.76421
207.68040        163.46669        262.88283
208.28529        163.69170        273.37813
218.79562        162.98244        280.32774
212.11082        170.71580        125.35012
208.87179        172.47880        242.86274
207.70933        173.62265        253.31134
207.98199        173.28509        285.57487
207.65706        178.33941        145.85583
208.43992        183.00900        154.40886
208.15782        188.77775        91.25292
203.89771        180.66985        211.78782
208.51966        185.94736        253.20079
208.32871        185.58857        263.37397
219.79807        185.56792        281.33890
207.39318        188.63415        118.11315
208.00082        196.31430        139.59758
209.89377        190.33413        145.25869
209.27870        188.33303        163.55748
209.93134        186.62443        241.81641
213.61155        191.85665        85.23232
207.65371        197.33715        108.35871
208.11159        197.94010        242.85162
207.69164        197.51400        252.68280
209.60957        197.62226        263.39157
208.56782        198.13343        273.15647
220.49669        198.71091        149.05231
215.22665        198.12746        237.63412
208.47743        207.72547        99.28665
213.69906        206.65514        107.49018
206.75296        208.92299        127.90561
207.57568        207.68440        233.93991
208.11750        208.01654        242.56801
206.81063        206.78131        263.22453
207.65920        207.35618        273.80423
211.33695        215.26359        174.45989
208.03150        216.33533        183.07389
208.15371        215.43649        100.31327
205.88301        216.17797        137.16353
208.60983        218.19572        199.61561
207.81906        218.00274        276.84746
205.47837        220.65036        171.41786
203.79226        226.34386        258.58428
207.91552        244.24716        266.02205
208.17870        229.93389        273.95193
208.13362        242.74480        234.55930
207.53784        253.04636        240.52218
207.17895        260.54486        243.80923
212.09979        255.92155        252.94424
222.31310        153.56914        214.52862
210.35230        150.71587        275.67846
219.82245        173.67944        87.13962
210.88469        180.75539        235.35221
210.25461        183.85729        221.92246
217.24204        208.34408        213.58331
210.33607        218.41527        190.26111
217.55003        130.88799        105.22404
217.85993        140.92280        107.79806
218.28262        140.71327        118.21938
219.03703        143.18966        253.34611
217.86317        148.66598        123.47337
221.33119        142.67616        139.08276
219.01981        144.55662        154.55631
217.51375        145.36713        208.04215
215.63784        145.39940        243.97377
215.76178        150.85087        100.60156
225.85915        152.67512        108.06778
217.97318        152.72198        135.85905
221.33636        152.72156        145.64774
219.23521        153.88761        243.27331
218.36402        152.52594        251.63231
218.31223        158.08217        200.15729
219.55102        161.50773        64.40245
219.59952        164.18150        73.30139
228.03989        156.65133        85.31903
218.48606        163.83556        108.88691
217.37723        163.93762        118.06333
218.16226        162.68360        242.90352
215.47935        165.76239        235.28944
217.94010        173.33466        234.31017
218.70751        172.70232        243.12356
216.17773        173.72996        252.55458
217.89558        173.44212        279.90347
233.63773        195.42866        106.42256
217.96955        181.48208        144.45897
218.22818        185.97080        97.02558
218.49810        184.05253        130.61385
218.87517        187.80243        153.30514
216.63335        184.50926        162.98961
217.98705        185.56112        234.23947
218.49778        185.18350        242.61450
218.14883        184.03878        252.26824
215.68019        185.55317        263.19525
216.34630        185.59481        273.81101
214.15267        185.47691        170.45299
220.08034        186.50067        218.79798
215.58350        190.47505        145.07805
218.75278        197.28114        116.27807
221.89123        198.70158        128.18538
226.61607        197.73253        274.75649
217.73721        197.88409        282.79450
218.00180        204.63049        98.61321
218.32992        207.32340        120.09583
217.90102        208.25629        241.02396
218.24745        207.96075        277.10304
218.06327        216.71398        182.72991
216.75177        219.07382        190.23225
220.33510        217.72544        242.13423
219.27506        215.03159        249.92130
216.34751        213.97663        266.05142
219.06411        217.44624        274.66546
218.35010        231.72147        243.29673
219.38194        230.49053        263.20654
218.74384        229.12901        271.83991
215.74524        240.31981        235.45978
220.66404        241.47041        253.22065
217.29412        241.63361        264.83315
216.45876        247.84577        244.94670
215.75004        251.47518        262.22764
228.58348        154.83160        263.29250
219.84032        164.71456        259.09874
220.76645        166.26734        273.71276
222.14897        172.84910        108.79759
230.03830        162.15593        120.88788
220.69396        170.76684        207.16063
220.77685        190.53008        145.40035
229.46985        187.08544        199.71789
220.72134        197.93631        208.07332
220.50761        207.86697        125.66462
228.99832        211.51271        253.38393
220.76622        215.99137        260.63855
220.71944        220.90627        265.44118
235.47540        142.64421        103.83893
228.92401        143.05751        117.56718
230.33590        152.88720        69.27991
232.66360        143.16826        128.00166
230.96144        153.20964        98.45174
230.39091        153.07453        128.22534
230.79071        153.76301        208.77677
227.50339        153.02743        253.83847
231.40994        162.53454        198.17629
230.58586        155.36126        225.99647
231.11289        166.17925        72.24815
237.46195        161.83470        107.46108
230.54178        162.66415        208.00578
231.59658        163.32630        218.92134
231.11466        163.51387        229.59200
227.72480        163.65811        244.30349
231.44767        163.15097        252.65464
227.38653        165.23904        65.47705
230.04032        173.58131        206.06811
228.81726        173.78893        243.53535
233.51844        173.05957        252.49881
234.97579        180.44167        263.20942
231.14192        173.26619        273.80682
226.47187        172.80340        282.36813
229.91453        185.09059        135.38784
231.82605        186.03099        117.43737
231.53974        185.07325        214.43437
231.76749        185.35671        248.70581
229.83584        188.23296        99.86593
233.45683        186.16102        226.93607
231.14755        198.42991        99.06462
230.74410        198.07096        249.56928
234.29954        197.74469        263.00145
226.01732        200.60092        270.69735
229.64194        208.38446        126.31757
226.00544        205.67174        243.05746
229.84729        208.40201        262.75113
227.88210        206.95573        273.40507
227.71545        218.85016        263.95289
226.62611        228.16864        262.75948
230.19319        145.47038        210.88646
233.38718        155.49365        198.84367
236.34761        162.27589        63.88507
233.43900        172.42296        195.90804
232.81650        173.25339        218.07389
233.19575        172.67527        228.08243
230.05112        210.25191        245.65722
236.49055        131.12115        99.93525
242.00035        172.39691        153.55009
241.37775        173.71811        162.82168
244.70594        153.14856        86.09746
242.16837        160.30780        72.68127
240.42389        151.02565        75.67140
247.67279        152.93778        98.28953
243.99819        161.53285        117.64513
241.90218        162.48088        218.24070
242.55869        163.37497        227.89529
244.08930        164.67639        127.41467
241.07621        163.64917        208.61156
243.05967        168.83268        140.99429
240.34322        172.55964        197.44162
242.69672        173.17124        208.12870
244.02792        174.78003        221.48752
242.90646        175.42534        173.21665
242.86390        184.57572        185.36817
245.09203        183.06709        173.37502
242.46396        186.05723        197.65826
242.62903        186.35597        207.83834
242.37293        188.66658        107.96429
243.38454        198.66057        203.65967
240.32712        208.38977        98.00831
246.66477        181.34964        164.05374
253.22754        154.20557        107.66631
250.30180        160.92103        120.21824
252.39755        169.14911        140.71163
250.99581        173.67877        152.57842
250.22626        175.79522        160.40499
255.50373        161.60630        122.55458
