145.83661        170.94378        105.36724
150.28832        171.69465        119.31110
150.77607        175.67702        136.97292
152.84827        173.47741        232.59287
148.81836        174.50997        242.96909
151.82411        177.81688        103.99688
147.32654        182.42828        143.75253
153.34165        183.75820        262.67535
153.20850        185.48069        283.65779
162.11991        191.49076        124.46448
151.99859        184.59099        126.72899
147.01133        190.61035        153.41111
144.99964        209.97255        126.04653
145.44315        216.04387        90.06575
149.30452        231.81948        186.12537
145.19635        225.95194        220.40688
152.25866        230.29516        218.19027
145.41964        244.64320        244.81182
152.45368        253.57537        164.82108
146.14116        250.99169        171.12858
143.06040        251.19370        269.26821
145.09361        253.39724        244.76188
145.34542        255.32760        250.24716
144.72099        253.19433        275.34821
145.53836        261.67410        252.22925
144.86326        261.97288        262.37064
152.35011        121.60038        112.63063
150.82529        136.82589        83.76591
150.48051        137.63678        252.96177
150.95629        138.31936        260.82900
147.57490        140.46409        255.19212
153.26474        153.68396        117.99079
154.74165        142.71295        119.17279
152.93342        142.00330        245.28695
152.52558        151.45235        109.19884
152.51574        153.42032        129.43796
148.81530        148.99289        250.19840
154.51935        153.21155        236.28633
153.63557        162.94642        105.18908
153.04628        162.94990        128.23590
159.10431        165.79206        142.99216
154.35065        161.19989        273.47000
161.76775        159.68189        283.42353
150.67692        166.67270        110.24245
150.76336        165.04288        235.12828
151.75866        165.15435        243.46755
154.79055        163.52818        262.68617
153.24488        170.96293        130.95759
152.21415        172.59796        145.45105
151.28874        169.25289        265.70576
150.26431        175.34282        253.08117
153.06674        183.43678        116.05066
151.43616        181.05977        150.62450
153.00252        188.01338        99.74605
148.90274        185.66753        235.31478
149.05061        186.54467        243.57381
149.99506        186.45116        253.81862
151.87929        192.26492        109.62607
154.30903        187.47977        163.12574
151.77522        197.83184        98.86029
153.10556        200.83685        138.75549
152.71498        198.19895        231.16343
151.21783        196.01981        245.05711
151.89871        195.76257        252.95831
153.14279        197.81216        283.00192
152.59103        203.45733        109.46226
151.10775        198.07503        240.49475
150.68093        198.39901        265.23726
150.12152        205.65472        95.18051
157.02678        208.58138        99.57780
150.26005        205.44434        116.23282
150.26665        206.87403        275.91220
151.00771        209.97874        121.76817
150.81412        210.73287        238.74055
154.05330        218.88899        96.36417
150.73192        213.89514        105.84702
153.01717        215.57389        109.94348
151.39774        223.89616        152.77280
150.88106        222.96592        163.29890
152.91066        228.90538        173.69669
159.84485        235.24683        276.11070
152.98194        226.00014        141.46093
154.50411        231.89562        231.77181
153.72795        231.37337        250.59634
151.73061        234.14923        208.46322
153.30220        246.33405        242.30609
151.08791        240.79246        271.19099
153.06835        240.42190        280.24894
151.39061        245.08150        252.10775
150.84167        243.48461        265.14256
154.74991        247.98884        175.28274
150.34680        252.42523        187.71857
150.67802        262.79363        177.99423
150.37286        260.93374        270.89422
158.49381        130.42794        85.55627
156.98703        130.28417        97.89862
158.14191        129.54910        108.47114
160.03914        128.23442        117.12307
156.15919        136.01980        251.32487
159.69576        140.99150        70.92137
164.75640        140.28372        108.05269
155.86303        140.90659        255.21673
154.97802        137.75629        265.39444
155.61549        139.98464        271.07448
161.78870        146.21551        129.59609
153.62025        144.38118        240.42942
156.99499        150.72483        75.38762
155.55484        153.24756        280.00164
158.75230        155.21540        242.15500
168.27521        155.62964        142.71451
154.60594        161.04476        240.38776
154.90041        167.28853        97.15372
162.03380        159.00120        233.31849
154.88683        165.51542        253.16542
162.17031        173.55268        85.65080
155.80023        172.09977        153.80359
154.76615        181.63259        155.18827
158.35813        185.00298        242.60864
158.18823        184.46811        252.86341
154.63086        189.83663        130.09482
154.63782        190.08435        145.17804
160.14367        191.10763        153.51744
158.59945        197.39458        105.13206
155.10355        198.58812        127.72728
154.84991        200.07813        255.11916
161.09338        209.07964        232.92209
158.09141        205.59852        242.93447
157.93413        205.43558        253.03190
157.58635        205.94643        262.47904
160.39807        210.77839        273.17792
160.34955        222.24677        208.10434
154.12305        215.92364        242.05943
155.21192        227.78699        199.44437
155.15151        225.73554        242.79160
154.95508        227.49817        128.38483
163.74762        233.15933        107.10728
159.80141        225.58235        159.07969
155.52521        234.74581        283.76856
158.90727        245.75632        187.33171
158.55315        244.25494        205.30987
154.74487        241.04441        221.43034
157.46245        245.15147        265.42679
155.34846        250.62697        195.28573
157.08808        250.27550        253.53359
157.99420        261.34009        173.39803
154.67872        260.60370        245.10269
155.47911        265.77279        254.82818
156.87564        264.87440        264.70559
160.56709        119.64334        130.97696
163.04107        119.40288        140.68552
161.70959        128.58400        128.30585
160.81321        130.72239        73.31043
164.32810        129.96578        139.51579
160.51494        130.08406        254.98032
160.06128        133.52063        271.15437
163.27514        143.28932        84.37871
163.09268        137.78361        123.31927
162.11232        136.83959        100.24455
161.29249        141.30811        237.70637
164.72224        135.06510        249.14942
162.67365        151.64538        97.84710
163.13891        145.19284        115.86198
163.08521        145.21419        138.98429
158.48750        144.45379        274.39486
160.81876        145.54071        280.78948
163.28448        154.71655        107.23556
163.21817        154.10300        121.02161
163.79516        155.31686        64.94327
160.84936        155.43337        75.89647
160.54367        155.24414        250.68722
163.95477        154.12278        262.40154
164.99446        161.31003        67.02799
163.74154        161.62173        112.45658
162.87989        162.59411        127.12316
160.94776        160.70309        250.56516
161.57037        164.29284        262.07173
164.06366        164.13087        80.04045
159.36037        165.98054        85.67614
163.12125        171.31948        105.85710
163.76704        163.77158        240.42429
162.65174        165.59290        252.96203
160.85240        172.66030        112.67987
163.97121        168.48310        120.53895
162.64495        173.54003        127.45999
165.75210        173.39982        137.10006
159.99795        172.22178        243.65944
161.85798        171.33264        253.53001
159.81474        172.22396        263.11781
161.49227        175.22573        95.40652
160.82467        181.38757        144.80779
160.33912        175.03989        295.36665
172.83162        193.57331        87.39781
162.33203        182.01785        107.70809
160.57362        180.76052        116.69549
163.91314        183.00698        165.25710
163.56566        178.10846        233.64611
160.78710        189.13650        134.71822
160.79613        190.00451        101.52331
164.34593        192.15804        163.34699
160.37685        189.55373        170.87839
160.92743        195.15437        136.54639
161.30441        195.72144        242.88100
164.31363        197.99495        252.20651
160.67424        196.11893        263.05074
163.92294        199.88553        274.13522
163.29399        198.60225        284.85700
160.71047        198.35574        142.15691
168.34408        204.05270        234.97023
163.51240        207.33971        283.01637
160.53285        214.38823        105.49221
160.62416        216.14377        205.73759
162.39864        215.68712        280.90378
164.09754        221.94832        127.78770
162.21224        220.78650        140.63098
168.66982        234.30775        236.42604
163.17223        223.30831        247.21452
163.08473        220.55804        257.07406
163.37244        224.20836        289.44221
163.93560        231.80648        187.13966
160.62071        224.37887        200.14832
162.33266        231.47664        217.85412
163.64909        235.29519        204.86581
168.92838        234.22018        249.11781
166.27229        227.15073        263.82965
168.60662        235.34866        171.17148
161.34016        240.96486        250.72345
165.15564        239.92714        263.73218
163.84900        243.68313        165.35533
160.57321        245.51628        235.54431
162.53475        244.59410        242.71356
167.36329        250.01819        178.29191
162.37922        252.86184        238.88384
160.53376        251.13972        247.16170
159.13968        248.99514        260.89359
161.42067        258.58870        184.28211
161.26702        260.73342        260.52381
160.27400        260.63043        269.64189
162.47890        266.12150        253.26632
159.31010        268.12488        259.32350
173.53717        127.08153        98.27933
166.63384        120.17089        152.90798
169.85168        120.80156        163.69538
165.21731        124.17239        172.49402
174.14155        119.70911        197.40368
166.41518        129.37431        152.52346
165.30218        127.79399        162.96920
171.81745        121.70716        185.07734
172.69707        128.53704        204.93834
166.19157        131.91041        260.67812
168.84432        129.40318        267.25658
167.09179        136.25878        75.93954
163.48849        141.00742        136.09928
165.35850        145.23760        240.50286
165.36981        139.85631        271.34706
169.30570        142.73741        61.25125
165.32609        150.85493        61.07437
165.59784        150.48529        71.47170
171.89582        150.59361        252.72571
168.14979        155.06958        74.89275
165.57425        153.40377        255.79734
167.33988        162.26767        90.11136
167.94425        160.79224        211.47935
165.46878        161.43502        265.20805
165.30558        165.15234        95.49578
168.30950        162.96272        136.34156
163.40607        165.36765        245.23100
171.92388        169.94776        158.85031
178.54601        172.02013        235.22725
164.94085        175.33923        99.81818
170.26983        176.12785        254.01268
165.43827        180.90508        81.50816
171.69573        184.37042        156.90316
165.65642        179.62411        220.51638
165.37924        191.98028        112.34566
168.90217        190.73023        145.06686
169.34544        195.74844        84.91935
164.93512        195.13054        144.52678
165.98769        200.03743        89.49462
165.11449        201.24131        263.76276
171.79271        212.02728        69.04636
171.03343        205.03225        116.98543
165.57208        212.95620        105.32781
167.62371        213.43176        242.82978
165.46845        211.37846        252.18245
165.38429        212.70165        263.99474
165.54053        219.85346        201.28105
179.52392        217.15969        234.30352
164.98923        223.35074        118.14079
176.61635        227.66929        82.77536
168.66006        225.86405        97.90261
167.09044        225.08545        108.01473
165.75112        235.24757        165.31707
165.41672        240.02199        215.81869
165.06764        240.85816        255.45438
167.09617        256.50520        267.33877
164.93868        263.19221        245.72038
165.47964        258.14864        273.42246
166.70505        265.23092        265.01297
170.35519        109.62231        107.83848
173.45343        111.54083        98.10649
178.97689        115.16026        123.22253
172.80645        118.76818        208.37149
170.75856        116.16346        215.93955
173.06765        121.10627        173.77760
173.51022        122.85630        109.84810
176.36266        138.31926        70.57153
172.35260        131.41803        76.70748
169.63049        131.10580        114.42042
174.04497        129.00762        219.55744
173.32157        130.89572        245.88282
172.93220        136.00167        65.48510
173.00294        137.89383        208.62734
171.12924        144.08051        76.26384
169.67247        140.91790        100.73524
175.19921        142.65285        119.85678
170.92845        138.78597        243.05878
173.64980        154.39782        284.68307
172.10547        147.84606        129.21237
173.32907        151.88721        243.15611
170.74415        150.94671        61.16303
173.59634        150.83799        86.69344
174.28419        154.11576        117.28537
172.32103        151.93718        235.29662
174.02904        150.84146        263.84600
174.09068        153.75871        64.76104
171.16934        155.40052        95.32266
176.08516        151.79228        107.40952
173.26969        155.66904        125.95061
174.26819        153.45806        209.13127
172.59297        155.30243        218.34267
171.72474        161.95879        83.47684
180.90791        159.13859        96.30798
170.68613        159.14008        130.51100
171.04518        160.70851        200.64458
173.53870        158.34185        253.35097
173.15374        159.69679        263.11064
173.81567        166.83631        110.26746
170.58353        165.85300        115.72754
177.49471        164.14301        125.83656
170.87978        166.88854        146.04591
174.97297        165.42454        208.58224
173.13398        167.49892        218.52692
173.02326        176.82824        287.20305
172.54963        173.20304        88.65345
174.96347        175.27771        104.00380
169.44520        170.75444        115.55207
172.80296        176.48447        122.69212
170.96262        178.98596        81.78457
176.60754        174.70108        181.69641
172.86738        177.03752        196.26552
170.48021        175.85351        263.11572
183.93058        192.05137        89.67832
183.46802        183.13765        186.85824
172.29171        182.09848        210.48033
180.80044        185.41393        217.10282
172.51389        186.79242        250.60102
169.20510        185.92119        245.61754
174.28284        187.28974        109.13071
173.74927        187.04208        119.64788
174.81804        190.11091        227.06443
171.11286        190.97263        290.28449
171.27177        195.30732        95.95240
174.05740        202.08893        65.27355
174.14594        200.29542        90.75292
173.57259        205.21941        243.34212
170.75749        199.81392        294.05175
174.20876        205.44651        253.67186
176.27529        206.75082        262.47488
172.12705        206.47015        274.49881
173.28788        208.04068        284.90184
175.77197        208.91366        108.66373
172.73748        218.22864        99.93637
171.15500        215.58305        106.04016
172.92549        218.49700        121.27127
173.47114        214.96636        263.09915
173.83285        216.02046        274.45502
170.83975        223.58846        73.28459
173.21322        222.17693        200.45931
173.23256        223.75530        249.44385
172.68534        224.33338        260.82928
173.20430        226.24927        179.39127
172.54584        230.29217        209.05795
173.31210        228.87859        273.85362
178.82997        232.59326        185.49643
189.40852        232.70542        280.08756
174.09952        236.35170        199.92078
171.01634        234.49428        216.05182
173.07950        242.09284        273.00368
172.97126        243.69475        169.69346
170.92172        241.48892        210.02636
174.40420        236.82174        261.90826
170.95127        240.23887        265.76965
170.69438        250.46961        195.06067
170.64175        254.63712        236.85467
170.72869        250.30723        273.61862
172.46344        256.00523        270.35090
170.69287        260.86764        240.82621
172.98494        267.09669        255.15466
170.61642        264.87469        269.24626
176.31014        100.21141        107.53892
175.75256        100.45044        119.90639
175.60144        120.05788        91.16613
186.83933        119.16271        94.50479
175.88525        120.76289        105.72166
175.54671        126.82259        255.02524
177.62421        128.75139        181.89626
175.61932        130.30409        265.40873
175.82206        130.79855        275.41276
175.63399        134.60793        105.50482
190.59635        148.89514        129.19704
175.79190        138.56324        220.13160
175.52909        134.41703        261.28547
175.26864        135.81313        275.15590
176.12753        138.85651        269.49890
176.87276        145.23811        65.68128
181.31577        150.30958        97.98101
175.64563        145.36242        235.53987
179.22826        151.00534        73.42921
175.40252        151.25631        215.70106
175.31740        156.76276        70.52177
181.75011        162.49076        106.59358
179.29242        162.93228        87.15546
178.16122        167.89520        152.45416
184.64606        163.93746        181.50115
179.76333        165.28104        195.70437
175.79908        165.93789        226.03455
175.75302        167.50486        250.40899
178.19280        180.59240        149.99005
175.83730        185.39129        255.03497
175.77525        190.20988        205.92620
175.58911        193.56726        245.32562
175.19619        189.79650        260.75143
178.66925        197.22058        73.28358
175.55329        196.13936        105.34383
175.92668        198.04038        127.19667
178.52186        196.75994        137.36627
177.52384        198.01266        219.04073
175.86297        195.36503        225.68213
174.71235        195.42844        285.65784
177.85264        207.28417        126.43225
182.21441        204.02594        143.02331
175.90855        211.86910        130.54809
182.78791        218.75303        85.66855
176.33720        218.73754        110.06968
175.58348        214.57001        253.07206
175.72311        226.17378        206.04604
173.63702        226.37504        231.26206
175.32762        228.79581        99.65073
175.68048        231.27000        218.62043
181.53315        242.16234        215.94325
175.14371        244.89298        181.53224
175.41952        248.89878        234.86213
181.15373        262.92813        245.00860
175.11360        263.01773        264.97962
185.49671        99.11630        120.40597
188.01693        104.09125        130.82534
181.36987        108.05732        106.45925
181.06825        105.87414        130.38764
183.92543        110.07337        115.95644
180.86741        110.05273        126.05792
182.33875        115.83405        105.71840
180.86712        120.62567        90.57232
184.32827        130.09302        133.56297
180.70538        119.15409        208.21685
183.41309        128.11380        218.02974
185.64096        127.46530        105.14970
182.40088        127.95443        199.84247
187.85753        129.12686        116.01175
187.36918        129.09663        208.26170
185.47729        134.78489        244.40731
180.92215        130.40833        252.14822
180.57150        128.93139        260.60485
181.78743        136.23101        145.88163
182.58846        135.06087        163.73135
186.28947        137.72283        209.33221
185.27156        138.03553        221.42971
181.83448        135.82645        267.64890
184.97272        147.28843        86.97789
180.54253        144.64493        95.46103
180.54257        145.22631        110.11646
185.52817        145.07442        240.92967
184.98927        148.74322        252.76895
182.90383        150.53885        209.16389
184.07154        152.56513        219.11107
181.02251        151.12482        235.10123
185.71488        150.24659        263.28635
185.54455        150.69213        273.39855
190.36420        161.72907        286.76034
188.20368        157.68112        208.80841
188.61351        155.27217        242.63347
186.90732        157.77584        252.68550
183.20152        163.84297        241.67331
186.56787        159.19937        263.65148
191.64432        162.93631        272.95526
182.59394        167.65150        116.99729
185.65425        163.72002        218.61039
183.96293        168.26923        231.06986
183.30908        165.66018        250.86094
183.78648        171.05387        108.67130
185.07717        174.25520        137.81173
184.78781        174.62936        287.83576
182.58541        180.82748        110.91101
192.92219        181.13717        197.28815
182.52866        175.43722        257.84099
180.80731        181.34261        125.59698
184.84351        183.07041        205.69248
188.34510        186.06401        257.60825
186.05726        185.47664        287.32659
185.66343        189.23076        123.12706
179.58236        185.55516        226.72700
182.54480        189.96513        229.92203
182.77418        195.44277        110.48996
189.86451        198.81159        131.40339
184.27639        195.66272        195.09488
184.53326        195.59611        250.30069
185.44612        199.76581        63.44953
179.36462        198.46272        99.98856
181.75496        200.33754        105.69650
185.65229        207.68158        106.91931
181.10303        206.03069        245.22067
180.79917        206.23681        252.84826
181.14242        206.33782        275.77981
191.53516        208.63422        283.71683
189.53195        207.99737        62.69319
185.21519        208.10057        71.00648
183.32420        208.25907        240.43719
182.08572        216.83182        67.33430
184.87763        214.52529        98.22726
186.10926        220.04546        118.79374
185.54939        216.70497        129.15942
192.81112        209.52086        148.42466
184.97104        215.95039        251.53846
180.64299        221.66544        105.53666
185.32286        229.85895        208.05476
183.43266        219.25363        275.51294
182.04811        228.63652        94.86925
183.01102        230.41669        174.69239
185.43247        229.87459        233.39202
183.65089        232.93396        253.36086
185.31950        231.49393        264.68695
184.83320        231.53520        198.42694
181.57843        230.29188        275.72413
180.61138        234.58020        218.58955
179.76814        240.44114        170.59465
184.97614        241.03985        236.06483
185.09366        242.88532        272.75586
181.13741        250.89148        239.09893
185.52421        254.97214        269.48070
181.03538        257.70820        236.83336
185.12834        260.46064        263.51059
185.44095        120.54681        110.07719
187.45254        126.63293        166.90915
183.42792        125.94104        253.11963
187.31973        131.40965        153.97268
185.00981        130.68561        270.70669
189.09429        137.46634        169.91173
183.85366        136.98490        255.82518
188.46401        136.71391        277.03825
186.81297        143.62168        116.05205
188.99080        143.17618        137.69318
185.52884        142.93075        149.27156
191.15523        141.14128        156.21512
187.75257        144.04172        281.50787
187.43139        153.00113        113.94241
185.86163        150.67134        125.61548
188.47254        153.36042        156.50928
188.00381        150.64892        165.26998
191.97449        155.70085        87.52180
185.88360        160.40635        200.49323
187.81165        171.14574        152.99966
189.04117        164.66397        196.65646
185.51198        171.34663        254.62248
188.51031        172.53471        128.24212
183.97812        175.32580        210.09295
188.45641        173.38432        215.54353
182.65641        175.02386        295.24916
185.85130        187.85723        103.41770
185.57610        185.27986        273.30270
186.80781        195.49727        227.69015
185.26387        195.43155        288.31301
184.90197        200.50339        120.74053
188.32193        198.34974        216.58500
191.91160        207.29505        237.79003
191.06640        205.72999        253.41280
187.89619        209.82498        133.82050
185.96703        209.96550        265.30265
185.91952        209.73512        275.53748
190.01142        222.26151        106.87433
185.81265        215.84496        263.14383
185.62944        216.44925        271.20064
187.74749        219.10136        281.05964
185.55669        226.42453        217.49841
185.67552        229.93978        105.46792
185.41828        255.12730        236.72431
183.96544        268.57584        253.61917
190.52310        95.73124        139.08427
196.65970        118.89606        106.80759
191.74264        120.54878        153.38912
191.48969        126.91139        142.85005
196.88164        136.68330        202.90285
191.39136        130.29106        255.32762
189.67606        129.40599        263.12455
190.07330        130.84196        271.17546
189.80303        138.45563        107.02075
189.66539        150.82723        235.34370
191.02412        162.79175        228.70949
195.12140        159.52629        114.79544
190.39892        165.33913        108.33949
189.65395        169.08080        207.29948
188.40989        165.63379        210.49209
190.40552        174.62274        108.03013
189.72628        172.80355        163.13943
190.29952        172.66837        173.14509
190.40944        170.72874        199.91077
189.93898        170.66292        289.85683
195.51572        175.04294        83.55665
192.16022        175.25184        97.85895
189.79058        174.85544        118.09470
189.70724        175.35879        255.04611
189.90542        175.62266        264.98247
189.94205        181.20382        126.70563
191.26963        186.94184        107.79036
189.71821        185.55240        115.74105
190.11407        185.14011        156.40466
195.79140        197.76069        119.98676
188.21921        200.34958        70.96840
193.42383        197.86216        109.50599
193.17055        207.14357        113.09631
192.71065        205.64341        263.78662
191.64515        205.88700        273.98976
189.57594        216.37922        242.77571
191.42927        226.15645        90.05474
192.08695        225.77527        130.74105
190.15511        230.26418        122.43454
190.35063        231.54180        179.96727
198.89408        239.93505        252.44878
189.03056        244.84721        236.75975
190.25556        245.32581        265.86922
194.83902        250.85440        238.33034
192.66112        250.30370        269.11843
189.44971        254.95151        240.72659
191.00281        261.11520        250.28146
190.19829        265.38550        243.06555
198.78033        92.91740        128.92794
197.46894        99.46694        139.54025
197.95971        102.70915        127.75904
198.32460        110.89931        121.90708
199.15322        112.53011        133.51199
197.76101        122.59324        96.22779
196.72116        118.84441        143.87441
195.80349        126.73692        126.18290
198.75344        129.28415        120.76215
199.53425        130.64308        130.40326
198.68263        130.47471        137.66135
195.15178        130.82777        144.53557
199.75834        128.44108        151.77558
196.38520        131.18252        162.98154
197.01601        130.49598        265.63371
196.93808        140.60775        100.69745
196.19593        142.04161        111.80929
198.85401        140.57341        120.43551
200.40676        143.19493        141.64388
195.47042        136.53995        211.09857
194.20727        135.62442        255.15605
198.02032        135.20595        260.92981
195.78808        134.54110        276.16594
208.30759        149.64024        210.72780
195.22226        140.13914        244.67061
193.66087        144.52751        105.67011
201.80032        157.47892        240.53758
201.39182        145.14205        280.98514
197.64265        153.48561        96.68806
198.00835        151.59239        253.07501
195.45273        152.35088        265.27672
197.03082        154.64356        272.47081
195.34303        163.99690        174.87525
195.72232        160.99504        253.17070
199.05491        166.23302        263.22211
197.41754        169.41524        152.48008
197.09146        166.51130        162.42845
198.17640        166.90730        218.85618
195.34897        172.44064        185.62021
196.52771        172.61804        198.60205
196.71234        173.70347        208.39321
197.09162        177.21153        252.18779
196.07607        176.44151        138.45374
195.59645        175.50557        176.04199
203.15950        180.15664        222.81755
195.32488        180.78057        128.44336
195.03433        183.40136        208.54029
197.91135        182.80819        231.19986
206.79650        185.30574        286.79470
201.08277        181.46657        106.89519
198.82937        182.49016        186.16274
211.61194        187.07153        88.84186
195.29239        192.83044        155.15328
195.57147        190.32116        288.13334
197.59828        198.15473        84.44457
197.34749        194.71705        96.56595
203.96752        196.16636        251.48432
198.30566        197.57709        286.68850
195.76504        201.40989        95.37655
207.28755        200.28745        85.90018
195.18960        205.78239        120.98616
199.72696        206.29993        143.48908
193.67463        210.05422        75.44778
198.80242        212.23015        105.03006
197.04469        214.93493        127.15886
195.37020        210.16502        136.88830
199.62904        209.95476        262.94148
198.15817        219.23400        115.11007
201.06143        214.23208        150.48059
202.12471        212.59514        236.34891
196.30330        213.99535        252.22679
199.17136        217.51516        139.72791
197.39261        226.91596        174.74386
199.32877        230.50330        182.92678
197.79312        227.07953        199.87012
197.25370        231.17528        213.48005
195.31046        229.03045        263.89862
192.88217        230.28995        95.39591
195.59900        232.79586        233.49012
198.56694        230.57389        257.57688
195.34579        231.26826        270.67978
195.92817        234.25508        99.97281
197.89137        236.96229        205.66018
203.45472        232.07920        240.34262
198.73476        242.42993        182.71990
195.55468        241.55368        260.87007
199.75337        245.77977        270.09315
195.55921        245.52198        235.49085
195.31765        244.53008        265.74981
195.30543        255.30444        269.12593
194.01907        261.10851        244.89627
195.82649        265.68310        255.90230
204.54243        92.86092        143.16679
206.02538        118.30743        101.61178
203.92522        120.55940        116.59398
203.42304        127.62703        110.08764
201.10651        130.46540        259.45677
199.62109        133.56972        270.74977
203.29560        140.51811        131.55281
200.10949        137.82230        245.22545
202.15159        136.20419        250.61457
205.48088        140.25621        274.56879
207.76556        150.23607        90.29205
200.28176        144.90757        90.15903
200.72714        150.35487        109.86720
200.28437        154.91831        263.35830
204.15703        162.25430        88.55682
206.17215        162.66313        96.49749
204.93376        160.80965        274.16441
208.63333        169.81953        285.24310
202.74885        167.98767        252.46424
200.08584        171.86849        115.53209
206.18029        173.02794        127.06076
198.13909        171.27501        145.14680
200.39383        176.27021        169.18364
207.40367        190.64464        149.15099
207.18354        183.23681        120.39963
201.11564        186.41117        125.73925
202.17589        189.06253        216.24224
200.58357        190.50569        137.57904
200.10905        198.64579        274.10124
204.79399        198.59737        97.90542
202.40704        202.69082        108.94363
201.16246        200.02033        263.28280
204.76196        206.71217        273.29408
203.78535        210.45338        98.52675
200.25522        226.13003        237.62405
208.86013        232.98880        189.12618
200.44391        246.39789        234.83030
200.20037        243.14737        265.52129
199.90473        255.73692        244.37220
200.44083        259.23059        251.10205
200.27514        265.13966        245.53737
207.50187        94.87699        130.69590
207.22296        105.56522        128.43844
208.23128        108.46920        138.23664
206.77820        117.78891        130.10615
205.59384        119.87575        110.45280
209.28809        127.49132        100.99055
206.62033        129.60704        118.58644
210.05202        128.24044        127.36095
205.49875        126.49861        144.71435
205.94581        130.66186        140.89608
205.67747        140.66948        115.80931
207.98698        136.34177        255.35957
211.14131        138.97477        262.99708
203.93658        136.34243        277.79312
208.68602        139.08246        108.56304
205.65190        140.82287        205.75428
205.58661        145.44880        209.58809
207.11934        151.54279        110.33023
216.59374        151.37869        137.59302
205.43231        150.72769        132.68700
208.57562        153.78048        243.66530
205.93480        155.16614        236.58100
205.80368        158.18690        254.95794
205.42099        155.00330        283.71931
209.71633        160.79931        113.68701
206.36791        164.32397        123.09835
206.09506        160.73680        263.26824
220.98703        168.06081        144.47289
205.46873        165.89239        218.43769
207.48483        169.99158        227.90719
209.77647        174.42002        86.98806
205.61009        172.59078        114.79486
209.24856        174.07876        218.95872
210.26935        173.84550        272.95866
205.88598        175.74429        254.93955
207.48128        179.41651        263.25156
208.83810        181.83837        110.13610
208.14224        181.58368        147.74115
208.26693        182.68757        253.70708
205.54175        183.25558        273.31691
208.01837        193.26759        122.84661
209.13064        187.73180        136.23668
205.41444        193.62631        263.20588
205.86614        194.01391        272.30693
208.07246        196.24158        106.51795
206.20520        198.97089        242.73852
207.48556        197.21559        284.22569
214.61369        207.55449        119.58579
209.40659        202.11179        128.50533
206.20184        205.94498        134.55898
206.91238        205.76171        255.35554
206.60457        208.92254        283.16150
208.31333        215.18672        108.32907
205.87656        209.67936        250.48665
207.48514        215.97094        276.67610
206.81158        220.03833        101.71978
208.27884        227.24743        173.69163
205.64381        220.62274        183.97385
208.12460        222.65774        201.23914
205.54432        232.72004        261.44385
208.36940        234.04396        201.30061
209.59632        241.44967        178.82341
206.03929        241.62891        242.82038
204.13734        241.44671        262.69216
206.91299        243.93425        235.06505
205.39544        254.87629        235.26373
205.57373        260.79949        240.82635
203.99370        260.94243        257.28311
210.38484        87.23812        138.91280
211.49619        139.34043        100.22533
209.69543        135.66435        250.75990
210.28143        142.09802        246.58056
210.01230        147.31967        275.62033
209.73918        150.56154        281.75350
211.64171        155.30542        100.18477
210.00600        155.77452        125.65014
213.94077        162.39648        86.61846
210.37755        160.68774        98.18356
216.87101        162.95295        126.61721
212.91884        163.93282        137.64936
209.93534        160.97402        250.65637
212.51044        165.13896        160.90247
213.70372        167.26065        254.03115
211.29850        168.14907        263.70646
213.15495        174.80958        96.10454
209.85597        172.49129        110.41913
214.96914        171.79560        117.28336
209.76534        171.10833        163.69638
210.82667        170.52146        235.57485
210.12757        173.99277        242.17258
216.61253        184.77901        241.11030
211.46502        180.92907        283.50391
213.36205        189.16766        166.82484
209.56645        191.37437        242.86556
213.71150        188.26401        273.34997
224.16310        201.57885        156.04828
216.85342        197.30259        239.62628
210.43139        199.77278        263.20411
209.92824        199.43867        273.26274
211.84293        207.28115        106.09377
214.88379        208.43712        140.38361
209.97049        207.56404        241.99435
210.55606        210.34557        96.12830
230.39239        210.93886        207.36678
210.25889        219.88586        235.49128
209.29642        220.32882        242.81865
209.71575        220.61224        278.31821
209.55396        225.58656        275.68335
214.94941        243.63852        267.74008
210.26550        259.00919        245.42650
210.20409        259.46845        250.42969
212.29774        259.18043        255.64791
211.75013        258.10224        260.80318
217.08682        90.11136        145.84042
216.34865        94.18964        150.11336
215.81828        99.42289        141.05385
215.96818        139.84333        113.03380
215.87254        142.57978        255.00147
216.89388        140.35459        271.08791
215.68123        147.89983        100.65954
217.64847        147.78730        109.12827
216.10447        145.53998        278.16203
215.91608        150.70770        245.18231
220.07108        155.13699        69.06303
217.92122        155.10855        81.16604
218.25084        153.28557        275.82466
217.40792        155.02975        282.67274
218.04812        164.14842        96.16928
217.99709        162.00700        205.14475
215.75360        165.14579        241.85509
215.86294        162.44887        282.55486
218.86218        162.94895        74.88752
214.04558        165.15012        145.28955
217.50652        170.91807        109.02571
214.25988        170.62427        128.06851
218.14009        174.35039        244.39578
219.27869        173.21713        74.29994
220.80362        172.13114        87.10128
218.16488        175.49477        99.64979
226.23929        170.19598        129.19555
217.49186        180.95246        99.47675
230.91662        170.68809        113.95559
217.15387        185.91248        129.33434
227.24789        188.55937        141.71163
215.18274        185.41496        263.72117
217.80852        187.68805        113.25212
222.57006        191.22734        154.45630
215.99528        187.76245        255.17140
218.43634        190.43399        104.71134
217.15580        195.71300        95.59844
219.15657        196.89292        108.90084
215.52431        195.30245        265.49738
219.05580        196.19684        281.79427
217.78053        205.19849        127.81823
218.36994        205.58302        149.59481
215.96573        205.94558        275.23271
217.71396        209.49340        278.63683
217.92826        210.46914        99.79022
218.23034        210.14754        110.43728
218.41620        211.78765        240.59809
223.10796        218.12009        270.73394
212.93263        221.71184        195.87584
218.95417        226.32016        199.36634
216.62714        220.59087        240.12941
215.97393        225.63432        240.52477
216.46950        225.98482        270.84893
215.96483        224.08108        275.47577
215.88631        230.74726        244.41742
215.68137        234.62799        264.87639
214.03463        250.77767        241.01176
221.27448        139.58857        105.99326
219.73941        140.81194        264.72897
220.63126        144.97751        120.25991
227.67415        150.49476        154.86369
220.16498        148.41676        271.03470
220.58344        152.81885        125.89836
219.95418        153.54834        248.25042
220.25019        150.56404        265.34278
218.82474        155.53295        106.08209
220.90330        154.95916        120.62149
223.78290        155.02401        207.62168
220.53403        155.75318        220.25790
220.26644        165.21998        65.22351
222.39160        161.99155        109.90434
230.49395        175.91861        209.86469
220.56546        165.32645        281.14668
221.13932        179.03997        110.24880
220.39689        182.39111        285.13903
220.10900        190.07473        122.57040
220.38916        190.44800        136.03400
222.72448        190.80095        173.07824
218.36217        189.97452        250.62186
220.46550        197.86607        100.21707
227.04581        195.39428        128.09289
219.04918        197.17129        136.97655
221.19477        196.02107        217.90145
224.91959        205.69375        100.10778
222.95912        205.08244        137.69848
219.92556        203.77139        250.30543
220.97229        215.82502        99.71978
222.03851        215.95547        250.95003
224.43266        214.45795        260.78078
221.97082        220.65829        245.13183
219.77584        230.17093        270.53919
223.57095        234.79103        248.75499
224.15020        231.16992        261.70651
220.31324        241.23234        260.36512
220.50043        244.63372        243.50726
222.58766        247.66566        256.11596
220.52872        250.82676        250.69948
225.47545        145.06917        109.74014
228.83333        145.16190        118.13827
230.58401        149.13474        139.53825
225.92159        152.03681        256.56483
224.05050        145.69940        260.78485
230.92703        151.28450        114.71679
229.24153        153.99218        130.56993
226.23135        150.13551        261.70770
225.75727        150.63512        270.50095
228.16836        160.98211        63.71232
225.89456        153.73469        79.33674
227.21460        159.75549        220.96234
228.58074        155.12033        269.06480
228.24807        161.02093        74.87800
232.30021        159.90860        104.73965
230.55995        163.21921        209.03546
226.33964        161.20329        244.84484
226.04094        163.07047        277.51253
225.92827        165.11682        85.19590
231.53842        173.47834        198.55475
225.75064        171.42219        65.66241
236.55706        165.61981        86.21076
226.78216        169.22817        245.01139
223.08252        175.53464        95.45777
228.33387        180.83122        244.79539
226.06178        175.40321        281.97145
236.87332        175.32487        123.79709
229.01791        185.55492        131.54470
230.02076        190.96482        107.63363
230.50562        189.16279        117.64749
229.41097        187.56890        276.42630
225.91523        198.01239        100.35468
231.37454        197.85704        117.07538
227.88564        197.40588        250.57651
224.74391        195.30203        265.02703
226.52487        195.61188        271.47583
228.13605        200.13555        110.47063
226.28495        198.42822        224.28332
225.99895        208.83119        106.25926
225.94034        205.46683        120.36085
226.68844        204.91112        126.03031
231.09155        207.58186        199.68548
226.85205        207.22898        215.96207
227.32661        205.78900        274.42172
223.15376        205.56184        279.77317
229.91855        217.51009        100.18189
225.49198        216.04520        119.85430
227.39739        216.39474        126.35079
226.07153        220.74272        250.62137
223.50955        232.51065        239.96162
224.51076        239.04818        255.23518
232.47346        153.95362        90.15879
231.75391        163.47283        254.14352
230.63774        163.98216        264.91876
230.74948        160.97487        271.25944
232.61816        171.66924        221.21420
233.12856        174.06309        252.70463
230.69110        170.54810        271.07787
234.80210        175.53571        70.07269
230.63585        175.11839        277.09652
234.45132        185.53874        99.90816
230.94041        183.50630        103.85875
235.05620        186.45277        262.59563
233.60437        189.65381        200.04108
233.08430        196.93081        213.50469
232.96804        190.04073        219.26748
232.28789        190.19558        253.74848
233.07784        197.50468        99.21953
230.59343        195.71579        245.18847
230.49803        197.15568        255.36352
230.13780        195.75505        274.98574
232.94589        199.98082        263.09770
231.44927        199.99625        271.12383
230.47627        198.47310        279.34946
233.39739        207.70328        93.93822
230.92434        205.59416        109.78956
229.88509        205.69558        244.89080
232.15282        207.15608        262.05059
232.74882        211.82820        110.89624
230.10027        211.60980        250.75522
232.87224        220.33136        194.06967
230.56426        215.86922        255.59813
230.90734        219.74745        130.85905
234.33624        221.98215        137.92609
228.91036        220.43937        257.15093
228.64364        227.62526        265.15029
230.29090        234.90655        260.65265
234.65392        145.26347        98.07421
235.34583        158.25012        81.06422
234.89339        160.90955        71.05740
239.72980        162.34386        215.48553
234.72775        165.71714        64.57924
234.72003        166.00321        260.81124
244.20687        179.60716        226.48338
236.40985        174.53653        264.16165
235.23182        180.74252        218.55189
234.74877        182.44087        270.58002
234.80930        189.68431        246.66506
234.72820        192.36283        270.72236
238.07973        197.91936        107.32950
241.89272        195.75793        95.22776
234.83351        199.84910        227.47743
235.12170        205.74855        100.42904
235.62424        204.44867        184.43695
234.57614        205.49926        255.49555
234.76365        215.79771        105.55699
242.36441        210.74632        134.32434
241.34771        150.48615        107.09953
