110.14499        196.21515        138.79267
114.18154        200.47759        140.84329
115.48249        205.29318        140.07724
116.60495        210.19130        133.76532
119.30486        213.56370        253.56746
118.40109        200.03964        129.97801
118.66298        200.44869        255.49006
118.72176        205.45291        125.53629
123.55398        205.24233        248.02449
119.04083        210.18187        120.21178
124.13596        209.06882        264.22573
121.98890        215.82899        118.44944
120.71464        215.96878        126.11901
119.01202        215.78117        239.53171
119.62429        220.54357        256.65625
121.92209        226.49154        243.01222
119.78416        226.36010        252.04397
121.75347        224.28750        260.71394
120.31944        235.03894        259.52689
129.75807        233.85041        243.10217
126.87069        175.48770        255.21601
129.47872        178.95564        244.06509
126.15387        182.09188        265.35581
126.37950        187.16468        254.01363
125.33245        198.06589        243.58420
124.34636        195.20657        250.60186
126.67251        200.21817        120.30772
128.50782        199.20970        131.44313
123.97704        200.68244        261.11376
127.53546        206.75540        131.36713
124.22728        205.19001        255.50389
126.02698        209.88951        241.68066
127.44569        216.61830        131.81834
126.19246        220.40460        270.78801
126.67257        231.03236        268.58579
126.05303        241.19502        260.85801
134.39037        158.87902        252.65610
131.52880        165.63979        264.17555
131.94881        169.97309        247.78089
130.22123        172.64248        257.33238
130.98643        175.05148        265.35262
148.18428        184.61714        273.48996
131.16338        188.95599        241.54867
130.62885        184.54004        262.29592
130.71486        190.35570        267.56098
134.18350        197.49267        268.71752
133.22201        199.02689        237.04745
129.86082        208.81131        121.07248
136.69567        208.10195        235.76316
130.71961        208.23555        271.19796
132.52166        216.10185        118.88666
131.35871        216.68847        235.55038
130.28989        216.04746        272.50762
132.05704        220.53514        110.78571
129.13864        225.34648        250.24643
131.13374        230.38747        275.03459
130.66796        243.49563        245.53491
129.87694        245.00890        250.41460
131.23143        247.83610        266.00898
130.41708        247.85949        254.80122
130.88415        255.84684        180.68455
145.02945        265.57155        178.47533
135.78168        154.87656        265.84498
136.10449        162.93156        245.88021
151.33698        171.59291        277.76040
137.69523        183.60181        238.76386
143.05608        186.89905        233.72239
137.58531        190.31150        270.04915
137.19296        199.25862        127.05198
146.25891        212.02871        117.03034
137.93028        207.60675        127.42962
136.36689        207.19523        271.43060
142.69457        215.67563        248.09310
139.06126        218.56033        127.34842
139.39926        220.89638        242.84730
138.02418        224.00275        117.86170
149.14513        227.64933        273.91673
140.21514        229.43360        274.98860
136.55499        240.85176        241.91994
137.95481        242.26888        273.78169
142.48143        258.71115        165.31925
139.84389        258.00517        185.36721
136.93544        255.38695        265.39110
142.60382        150.53074        245.31056
140.66883        151.29340        259.83933
146.37250        155.13512        238.33040
140.33181        158.84718        265.89735
140.60547        160.24541        271.33932
142.45415        173.46686        236.63142
143.69807        190.06566        96.58657
148.52477        183.74659        119.40825
143.39876        202.18298        97.42107
140.56522        195.36660        120.60764
144.70197        196.54616        140.59143
140.75870        199.62659        231.21923
142.67105        205.78014        139.95590
142.94533        204.80312        275.13377
140.72230        216.51041        110.36474
147.80800        229.99314        102.43525
143.95416        232.37024        236.94278
142.93823        229.62655        111.41086
140.43449        249.40521        243.96717
141.67830        253.33272        175.54062
142.87926        259.30057        248.40913
138.70468        257.92974        259.01198
151.88815        138.95396        253.15844
145.47325        144.64917        250.77103
146.57122        144.61747        262.67589
143.24089        151.03597        250.23074
144.68196        150.19368        271.16334
144.59503        160.34543        243.05532
146.30752        163.93709        276.43675
144.97231        164.95313        235.20996
152.01605        204.70459        89.62496
144.77873        197.04054        108.78098
147.67716        198.09276        235.07985
151.39694        197.70115        278.42074
145.35116        204.36221        88.31919
145.41927        205.93604        150.58058
145.41045        220.73285        100.10570
145.20669        218.70516        110.07046
145.29084        220.45492        120.52263
148.75274        225.10132        261.96463
147.95405        234.32373        198.86390
152.13073        229.64839        218.61773
145.14078        228.78663        115.67431
144.87884        240.77704        205.49432
146.76876        240.83085        240.79013
145.17571        238.68768        271.21679
145.09806        254.78234        244.80646
145.60786        261.04196        265.78041
148.13621        265.06759        255.25242
144.94452        270.83862        168.14114
151.98492        131.83093        97.46290
154.36345        128.94872        107.90712
158.26597        144.27832        79.06616
153.73277        145.11000        95.17198
152.91619        146.64444        242.44556
152.87234        159.22822        109.22865
154.27779        152.93909        117.55119
150.42962        153.00710        130.40379
152.40564        161.67101        149.01793
162.36430        150.37949        86.10830
150.17930        155.78639        95.29735
154.20265        153.45838        277.61537
152.98265        161.49320        137.90255
156.80791        163.04778        234.28712
154.10089        161.81900        274.53708
171.15857        158.73355        266.11039
150.88100        165.56522        270.43779
153.80276        172.62497        104.77664
152.97423        172.70484        232.18101
151.17216        174.11243        247.30843
155.82678        172.97102        262.83379
150.38298        175.84248        265.89585
152.98746        185.54137        232.69570
148.54908        183.27402        242.87951
154.46098        187.40576        258.83512
153.55225        185.54595        284.48631
153.14272        186.64523        97.16774
153.05036        185.73607        108.03698
158.34445        199.26225        136.83877
147.79350        185.63765        265.52442
152.83686        189.93696        114.81276
156.47449        188.08549        243.11833
150.27769        195.25189        104.11914
150.60051        196.66435        153.65547
150.90910        198.00896        160.55024
151.15396        196.04621        250.77562
152.84690        205.92657        99.98463
161.27283        200.00237        105.42067
148.91472        206.56453        155.22988
150.95049        205.86434        162.83533
152.67688        216.04688        253.03618
153.38453        217.55413        98.26150
153.62753        219.27197        107.60827
160.95832        221.14835        88.67185
152.16072        227.06305        116.77089
153.55642        232.54017        185.72628
153.95403        230.51374        231.49166
153.59004        225.47053        243.73348
155.31444        228.00656        254.97448
150.36789        230.45207        110.47110
153.94884        231.97402        208.25301
152.18904        231.56579        250.47782
152.31469        246.26777        165.17955
150.59582        251.12363        172.56053
152.71639        244.50110        243.19572
163.19473        245.65762        185.93171
154.13436        250.68758        244.60019
153.93067        260.90170        244.15078
150.64833        263.57444        260.66308
155.10534        126.23957        115.71177
154.89605        135.50040        263.42592
155.40003        140.18525        245.52679
155.05928        142.25568        273.48578
155.87081        150.12911        90.18568
160.68728        152.79965        139.77249
162.90438        152.47699        128.27219
165.44272        164.82560        128.03071
155.29003        163.03933        244.87910
160.63614        164.26389        153.61396
154.75987        165.55526        250.43425
158.08888        198.00361        165.10561
155.80882        195.53109        275.75423
157.73577        204.41918        152.50417
156.18538        200.29410        233.22507
161.30046        208.35904        236.45189
154.46660        200.33848        250.42091
159.88121        204.36968        125.67645
157.41521        205.79208        252.98956
161.53080        209.18650        262.56319
161.19300        208.44297        281.29299
163.32675        226.31956        159.30860
158.67493        229.88565        172.80034
162.27667        221.59346        209.23278
155.98642        222.85683        288.85973
155.29695        226.71422        95.53048
158.87724        226.71722        152.84568
160.64233        229.61000        199.25039
164.80486        227.89841        238.09644
157.56047        242.42946        209.25038
155.11937        240.56247        222.24457
163.16756        235.47357        227.43357
158.03958        243.88500        215.68798
154.85967        247.30597        260.69624
162.05261        255.02103        165.00092
154.52056        254.70505        266.65460
155.35514        259.51888        273.76268
160.83427        124.21150        136.18274
164.20809        127.52986        151.03225
164.72996        127.65476        164.02128
163.48580        138.04080        118.29802
165.60789        125.49832        173.53758
162.46127        136.30291        86.16983
161.99258        136.26901        98.31242
162.45369        135.13740        108.52845
164.31298        132.71720        127.78970
163.18575        133.25521        251.02336
162.38131        135.07254        272.32775
165.02073        141.69671        65.34972
162.59239        139.34611        243.46392
164.70185        153.01469        98.08967
162.59437        145.28451        108.82283
162.96121        152.47858        238.27087
163.68962        142.99652        275.68823
162.60873        152.46580        116.96369
162.64896        157.82375        107.54192
162.88436        155.75948        150.53785
163.22024        154.83289        250.28129
163.36760        162.57315        281.55725
163.37993        163.79998        117.23718
157.92194        160.71722        253.06646
160.78382        170.01730        103.38006
162.69740        165.83502        143.56800
163.62274        164.52465        242.44651
165.59343        163.55593        275.73465
160.57417        172.55665        241.99594
162.36124        173.93918        251.90266
160.78224        174.97050        95.46599
163.43070        174.52536        118.26111
160.64532        182.72849        107.21600
166.41843        186.45550        137.98779
160.61122        180.93309        235.53188
172.28960        190.16451        287.07133
163.02241        185.60355        115.95814
161.06948        193.56476        150.67983
160.59882        193.89749        233.71691
164.87979        200.32788        273.82463
163.37313        198.35374        117.88137
160.75922        196.22222        134.09904
161.56225        195.89573        210.52537
161.32799        195.70495        215.77936
162.85596        195.39256        240.88747
160.96191        195.77754        253.20822
163.37498        200.51905        263.45036
164.16609        198.60182        156.61458
164.41751        201.12161        242.98243
160.32961        206.50098        81.59782
161.31024        205.68614        95.48106
163.91746        207.73697        116.28883
162.12599        205.91354        162.76592
161.73469        210.22563        87.62978
160.33556        210.32865        99.94993
162.86782        210.82065        246.46447
166.67516        214.09441        97.35097
162.08044        220.52628        106.52194
162.84829        223.45719        247.52418
163.04767        224.20581        261.17134
167.66907        232.38713        279.46354
164.66903        225.90517        95.03257
164.91170        227.70538        142.06947
162.64385        231.94064        128.43473
160.55448        243.23717        169.86412
162.91387        239.84148        255.35429
163.20980        241.69533        268.66245
163.79879        245.19115        166.32210
162.40464        245.05822        198.77678
163.07944        247.70327        239.59439
159.34352        242.90081        250.82674
160.49630        250.48663        175.80137
163.12282        250.84114        275.31916
162.92202        263.61601        175.34374
160.50463        265.96967        250.51311
160.57083        265.68527        260.91547
165.43792        124.72643        211.19422
167.30452        124.32272        184.21044
168.14834        122.83757        197.25300
165.66928        131.64898        140.07500
170.34827        135.34003        206.92925
171.26629        129.89030        217.55705
165.11809        136.64837        72.46863
163.64853        134.49080        265.31371
165.47307        142.68660        99.79024
165.33753        138.76075        215.63391
167.51720        144.36207        131.70785
167.27171        163.39356        101.37965
170.78058        161.48009        252.39002
172.08836        163.79980        63.87213
171.01212        163.37824        220.53752
167.43899        174.58931        108.95017
180.69775        182.35029        225.20360
165.14422        170.61961        225.58504
166.33944        175.67656        90.62071
165.45791        178.47947        130.15758
179.88079        191.79029        88.01056
165.27589        180.93314        110.30548
165.83596        186.97018        229.79148
173.85636        194.84801        202.20595
165.58298        186.68561        207.19514
167.27693        183.58548        245.22133
170.91677        186.15856        111.09688
165.40694        190.19722        120.08517
170.62509        187.51247        250.70652
174.50897        195.11819        124.84021
165.20351        195.91211        220.14317
170.33727        198.91540        230.00981
165.76093        200.53464        125.43423
164.99699        199.87168        133.34626
165.25734        200.95015        208.79304
165.44897        200.53828        215.81318
165.32187        200.33924        252.99272
180.39225        225.43976        206.22289
165.53302        214.39158        273.30525
172.07978        230.58173        255.23302
167.71328        237.21513        113.83175
168.84669        237.54662        209.29016
178.59616        237.16240        171.96261
165.76183        240.16387        195.65766
164.74847        245.25047        205.44340
165.98176        256.43925        242.63740
165.11103        255.17757        271.13634
163.48024        261.46156        170.78987
166.85367        265.07023        246.21386
170.96225        120.93178        190.18923
172.19980        120.65935        207.23031
170.99775        125.83715        200.58908
173.30380        129.91167        207.43128
169.86847        132.05047        255.23103
170.66556        128.50593        260.77310
177.04961        138.59996        219.16966
170.86727        134.30071        243.44743
170.97737        133.29426        271.18288
174.40086        140.67387        74.54004
172.79282        144.16451        104.54936
173.29711        142.26743        119.98064
172.12309        140.97249        277.81925
173.26016        144.89693        60.72181
173.23973        150.11586        126.92082
172.67460        151.58302        139.05866
173.11984        144.99373        240.57710
171.97767        153.55826        61.18305
173.36200        151.57132        72.12827
173.96700        150.49961        108.87176
174.20776        154.31466        115.75096
172.71136        152.38345        234.27531
173.58614        153.45876        243.11525
172.29126        150.09696        252.21865
173.20691        150.74426        273.36992
173.38858        153.15580        285.26990
173.98492        155.07064        84.66909
172.51865        158.39441        106.58911
171.61179        155.64541        150.27590
173.01194        164.51268        75.73063
174.98423        164.02847        89.36031
183.02784        165.58740        156.39449
170.69551        160.48176        243.11365
172.78335        162.92092        285.87014
172.20503        168.36440        111.09038
173.17217        164.85427        136.32219
176.12076        172.30102        96.83610
173.72541        172.43284        119.62691
173.98063        173.96443        85.12918
174.67236        173.60745        252.10099
174.65858        174.50432        286.91085
174.13677        179.30619        231.33240
169.30435        187.88256        128.15865
172.87226        189.53800        229.80670
172.95099        185.41159        240.71957
171.05500        190.16228        208.17030
182.90179        189.32894        112.92286
170.65655        196.90848        162.07034
175.85316        197.22629        243.58592
171.70529        203.33989        216.84681
172.55868        204.32163        252.94591
173.73456        207.35636        237.86778
173.35576        205.93944        263.21049
183.27320        209.85094        283.85143
189.62202        214.25690        235.92396
173.38544        215.54259        242.93342
174.63391        214.93926        252.21486
174.29513        215.21493        264.00867
172.80882        216.01161        274.22754
174.80242        218.94368        104.13245
167.65598        221.04380        285.00689
172.29587        227.64304        121.51340
173.80636        226.10063        182.45034
172.82889        228.80774        192.68454
173.22616        227.62814        208.70438
173.24931        234.95596        175.74131
175.53666        244.45171        186.75229
171.04044        234.78210        215.99760
174.15068        236.25094        241.89300
188.62113        233.85041        268.56532
173.34022        243.97793        273.22499
171.19322        252.79758        170.12248
172.20723        255.14903        238.12681
173.45751        266.12114        250.70346
175.12964        110.18802        107.66773
176.65876        110.44571        118.73565
176.02175        116.79740        96.82322
182.33517        120.80289        122.47115
175.53182        128.36181        93.52327
178.61606        125.81818        108.58317
175.47012        130.33222        248.87144
175.57324        131.03143        265.36303
175.77204        139.21419        65.27096
175.92337        160.28672        220.74076
179.17999        178.06424        163.86884
183.76460        174.44690        197.12890
177.98524        175.06081        208.15889
179.16246        183.36539        126.83305
175.67699        182.00368        174.12130
175.58572        185.07296        255.15008
175.88356        181.90189        262.09825
175.11411        188.57952        155.11759
175.54976        185.42554        185.59677
179.78242        184.63419        209.26054
175.03075        188.18882        160.79069
179.11989        195.55185        95.74607
188.39351        190.48002        218.73942
175.51359        195.56926        226.48816
178.89580        195.98052        272.38739
182.14503        206.39074        65.93522
186.09122        207.69675        111.68126
175.52087        207.64393        118.34238
175.89687        209.68799        275.57126
182.56273        216.61089        62.94287
175.37312        216.85974        73.77387
177.26529        218.60785        120.89668
182.84523        229.90611        87.17672
176.29796        230.35753        107.90800
175.41650        233.49778        218.81454
175.81996        230.75384        237.06999
183.02747        233.07068        200.13803
180.66658        239.85113        94.41771
174.88788        240.49316        205.89016
175.57330        244.38154        217.28072
175.42785        259.38445        270.88865
184.38029        108.16369        106.23554
185.96270        106.39111        124.95129
182.81779        120.54747        89.92836
190.30376        127.73892        108.34034
181.88597        129.57199        206.89253
186.66711        129.37782        96.86168
181.29607        130.47132        245.46798
181.02899        130.00190        256.76739
183.50760        130.66873        270.81976
183.15517        137.08200        99.17599
187.49332        138.37895        128.60289
189.38568        138.35330        208.56683
185.68357        132.34151        249.97040
181.89242        141.07517        279.77220
182.59460        142.79268        68.28787
181.04428        138.95938        105.46854
182.47013        146.02781        116.97799
184.76209        148.56245        235.31295
188.55397        141.43257        242.93214
181.88649        155.77504        64.72834
183.98275        154.29146        73.61675
185.76289        150.77601        86.91013
183.49201        153.56810        96.42181
184.59377        161.84572        108.53368
183.50712        154.55089        140.39892
188.89185        150.52157        165.24115
189.06643        149.82631        252.57654
185.63945        150.04882        263.33484
185.59148        150.39584        273.42853
184.43728        153.65355        285.16947
186.41054        153.48526        129.02162
186.54508        154.12227        242.27547
185.15445        157.34774        252.73846
186.49481        162.95189        89.83571
184.08430        167.35239        124.42801
184.80191        161.85441        220.72359
185.64250        159.20094        263.22619
186.06831        162.14894        287.52502
182.12277        165.36770        211.75618
179.62636        165.70899        245.45289
187.37332        172.74770        252.86885
182.00857        173.29116        108.98893
181.40890        175.32727        87.05210
182.13062        174.05674        155.07028
182.10020        175.46777        185.47545
183.69528        180.73043        262.12722
181.27830        178.31575        272.07679
183.95766        175.37573        288.34186
180.96912        180.75788        170.78159
186.15534        179.38898        173.96219
181.96600        181.55079        240.63949
179.91726        181.00234        281.66141
190.60317        184.41612        185.97699
180.99007        183.66788        199.50950
180.83418        185.10575        244.56787
183.51381        189.67819        255.12368
181.66611        197.07930        209.25458
184.26312        196.68251        253.67741
181.58764        196.03531        262.41312
183.21037        195.43239        285.93036
184.07958        200.95977        99.91891
183.34984        200.58711        105.76997
182.45759        207.47259        127.80080
184.48567        204.46552        138.18236
180.18857        199.93722        280.94780
181.14815        206.53978        245.34473
184.77674        206.95160        252.18287
184.61664        209.13364        72.04538
185.54601        209.30682        240.32656
195.78103        201.92631        273.90723
181.86385        217.54069        107.62677
185.69060        216.41033        250.45313
181.41567        216.08899        255.63882
185.42365        215.90740        262.72442
183.25257        217.19513        75.60966
180.72680        223.41535        99.79034
184.62471        222.15076        124.30140
191.56140        220.80033        139.79608
188.79267        221.72114        67.56412
181.05702        227.32870        73.93333
184.62542        232.31875        186.20649
186.18382        229.41277        256.79595
185.38855        229.59716        218.93717
185.55700        236.36773        235.56725
185.06339        235.03549        284.69955
181.15364        238.02736        252.46380
188.07500        239.29670        217.60872
186.68112        243.41406        275.19622
182.64869        252.17556        240.53179
184.61970        253.35957        272.30459
180.44970        262.35954        263.32089
183.22670        264.90872        245.39551
182.18397        266.58251        253.82535
188.29957        111.18287        133.97641
187.59140        126.02459        261.01986
190.47714        137.07025        142.76386
184.49438        131.76757        279.69419
200.13600        129.98024        107.72849
187.53992        144.55993        155.16320
185.30151        145.16800        160.50135
185.10772        147.17021        285.61929
194.71449        149.02867        148.19990
188.96053        169.95265        203.98953
184.60364        171.01887        87.61955
187.21326        170.76512        175.74428
185.77272        175.03171        145.17127
185.07242        175.35380        150.52358
188.21208        180.29993        163.06546
194.32119        197.35613        153.53540
193.77366        197.71560        124.22804
185.90990        200.09163        75.24508
188.92588        211.21447        145.07788
186.91221        209.36958        263.88965
185.13506        209.68753        270.81148
188.34757        219.10806        84.09325
185.77186        218.24568        115.84705
185.59154        216.18599        271.14040
185.79610        220.94176        220.18691
192.21608        231.50165        96.20259
186.52227        225.78508        107.28965
182.66378        248.17071        265.40114
185.37398        260.52167        240.99096
192.74709        104.26015        120.28381
190.08640        119.59125        94.27265
190.28438        127.04811        87.99922
189.75413        130.27714        265.53644
190.39584        137.80621        162.85154
193.18102        139.31902        280.72870
193.15351        145.33641        112.71215
190.43332        144.74316        135.96649
196.56214        151.75140        90.73989
193.08791        152.46659        110.83999
192.93281        158.06048        120.32097
190.49934        154.95290        138.15673
200.23592        164.57411        108.66234
188.83594        171.66435        115.56788
189.68659        173.17826        140.47188
190.55486        170.67713        286.02590
194.96973        181.88309        128.24972
193.56091        183.93684        139.56901
191.98694        182.41271        206.80507
189.99658        183.32878        255.57785
189.70029        185.05482        105.65104
191.03140        194.15346        107.63470
189.80550        198.13611        95.45308
189.34051        200.21619        71.12351
188.02894        205.69492        75.55835
198.02855        208.10311        126.55322
189.97768        206.03239        245.17463
190.35401        210.66276        60.48780
190.41141        210.95084        235.05090
193.14931        216.80384        99.26221
194.91195        218.37927        109.54299
190.14811        218.22801        118.51562
190.17128        224.29601        125.93477
197.69261        228.86237        106.76355
189.88327        234.78652        275.64560
190.21100        243.36384        263.23905
189.99926        250.95050        235.25677
189.95120        257.26971        243.25072
189.44732        255.53022        265.39522
190.23733        260.58388        267.30276
189.40910        263.56226        250.67947
198.58241        98.36493        139.47155
195.56230        105.87078        127.48350
197.75311        115.87315        134.90402
195.49806        115.70534        95.33535
196.98429        116.78508        123.00309
198.13852        122.24975        90.42157
199.27213        128.95227        148.95985
199.81974        135.15656        250.76053
195.53353        130.03899        264.92761
193.97369        132.10394        275.94207
203.37331        138.72705        128.68197
199.60760        140.81038        156.70453
197.95618        150.33581        239.77289
195.89014        144.71870        285.05254
197.77866        152.17748        128.26143
198.32285        154.26007        263.95391
202.67899        172.41103        286.20727
197.05649        154.92874        136.46646
198.29419        159.78535        244.00122
197.84383        154.89254        273.36136
198.32945        160.78218        89.18160
202.48800        169.08603        252.86379
197.25674        163.85571        263.64538
198.63617        163.20504        273.11278
196.16243        165.00258        126.03977
196.13114        171.30789        128.55865
195.30532        172.07615        135.95098
197.46715        178.68367        196.31098
196.34132        174.27553        215.63209
198.12554        174.63664        230.33509
195.92104        174.86949        75.72646
197.24127        175.22554        85.69474
197.62297        176.93026        97.87480
197.19408        179.02664        107.61106
196.39483        180.22142        118.19083
200.34312        182.48315        228.62873
198.05173        186.18673        154.01266
196.68926        188.83497        253.87927
195.81100        186.27961        289.38673
196.52751        190.11829        211.52608
197.83392        192.34740        222.76698
197.50466        195.63606        86.41679
199.16224        197.87985        111.79678
195.94710        195.76933        196.72029
198.14839        198.06051        286.45600
195.41527        200.71409        65.45569
195.95027        200.47058        70.45394
198.53390        198.89886        95.26586
196.26046        203.93438        136.33510
205.45655        199.98233        252.64923
201.16262        209.65406        65.19466
196.28666        209.11485        74.06188
194.72749        207.95133        95.31569
204.01969        201.10348        242.01466
196.56979        209.44338        263.78273
197.10734        208.18118        284.73056
195.24254        209.96329        90.49905
197.60081        211.09609        105.90078
193.81555        212.04121        255.54567
200.14745        210.20621        273.45063
198.24509        221.62321        117.92477
197.01656        215.53731        136.45094
198.21344        217.47159        152.39093
195.24562        222.64488        75.20870
197.21500        225.08534        87.70004
198.90993        222.87119        129.66789
197.64954        223.43833        279.09855
195.51073        225.49516        175.41612
197.86773        229.99661        183.40773
197.64395        227.26332        201.64523
198.42946        228.21280        214.86815
199.47759        228.45035        242.95952
197.26006        232.36526        263.19185
194.81417        235.43096        122.56648
198.38419        236.13912        209.35126
195.71121        234.93910        218.84116
194.19976        240.32457        235.13954
197.07955        240.26913        243.64409
199.41325        242.57710        256.98718
198.38475        244.13106        273.90067
195.29994        243.04922        265.53421
201.81651        247.62176        241.62415
198.34650        258.46537        270.30931
195.32018        264.71321        261.16621
192.99332        269.46667        255.05376
199.95265        106.30322        140.47546
200.35692        108.06753        130.30007
207.43036        127.52364        97.78373
199.99924        136.21038        271.37869
207.97287        153.03052        108.89760
212.74485        144.06692        122.14694
200.27060        149.78319        211.66658
206.50489        154.16810        141.18236
200.35991        154.58251        255.33363
200.64892        160.69044        137.78429
208.75111        161.50114        154.72775
200.45640        166.73356        234.46119
200.70070        174.02507        154.26518
203.79167        174.74997        221.57026
202.05312        170.81064        263.17048
203.61013        173.37344        273.30948
200.30338        174.93307        130.05067
199.39218        181.92084        248.64830
198.32899        189.89600        110.45670
200.91971        204.48861        90.13471
200.02166        200.14133        263.11410
204.48887        207.10005        80.89320
199.88086        208.03513        113.70297
201.93309        208.39439        144.92065
199.91723        210.91788        251.07549
208.56462        209.72537        280.02217
205.75934        221.10727        140.43934
200.02120        220.50355        182.60400
207.80899        220.31984        151.85723
202.97730        232.29770        174.36649
209.83718        242.30376        184.22359
198.40278        260.50006        254.66689
205.63694        98.43965        146.61661
205.47852        113.08764        120.47319
208.84744        109.67566        129.70344
207.01120        110.49102        140.13166
207.37157        120.33344        130.54051
205.82437        118.49133        135.67351
209.13113        124.63766        116.58156
214.36549        138.99057        111.56180
207.64482        140.03853        141.18179
210.12295        137.94749        261.28288
205.94641        138.90072        275.51358
208.54454        150.48699        86.77794
205.93837        144.96127        206.28884
204.63188        144.65206        279.66237
208.49015        158.16901        96.11549
206.20831        150.76628        130.55101
209.10596        152.86675        208.88777
207.19205        153.98357        241.96413
208.35359        161.62462        86.14979
205.20148        154.83203        126.48995
205.32108        155.74860        250.62994
209.73142        161.67335        252.91320
202.91765        161.06686        125.59731
207.55242        163.43580        238.65269
208.00076        164.91038        266.27143
205.68945        160.33768        275.62256
208.40539        165.37504        145.60320
214.64531        174.14783        108.59648
208.82434        173.06289        123.82090
206.41836        170.95511        245.04553
208.76601        175.51556        100.36206
206.57181        175.02474        115.57946
210.37043        182.80408        267.44564
206.86651        188.00429        106.53260
205.35881        178.25292        129.78872
202.60061        181.44118        134.47925
205.83618        185.43437        115.71296
208.74470        186.01699        149.45919
207.73923        185.58885        252.95525
205.66674        189.55709        125.65375
206.17953        190.04311        245.39855
209.85211        202.99739        89.05733
216.10327        197.73055        92.28678
207.34042        197.26854        125.95609
209.94713        195.59334        135.07997
204.65114        195.62866        263.37028
208.36164        197.48057        284.06558
209.87723        197.32486        116.79709
214.96998        207.22587        141.46962
207.44464        207.10694        110.14857
208.41608        208.37440        118.67183
208.94550        204.93710        127.63301
205.15052        207.15833        263.88601
206.97950        209.98758        153.39356
203.95392        209.75019        255.07479
211.02840        219.32477        113.89159
207.64355        219.90665        177.89713
206.08950        221.05906        186.06252
207.71363        223.82792        204.93685
204.26163        220.14758        244.78895
206.37710        229.92917        187.18067
210.40006        229.46099        195.48519
205.79492        231.71671        244.68924
208.72806        233.37752        205.87894
209.80182        240.84125        195.87229
205.79762        242.92774        250.48947
208.21276        255.40859        245.21137
206.15508        259.34596        263.56077
208.42056        98.32795        130.77822
210.44456        100.65335        135.84155
209.92269        99.43098        150.31890
211.48040        102.30447        154.98722
210.13712        105.26417        138.93100
210.00750        115.79441        138.92836
209.43045        138.69005        271.09594
210.41892        143.52950        248.70203
216.22807        148.50152        277.08342
210.00779        143.43316        283.57808
210.35698        154.97861        100.10796
212.29116        163.16087        120.46136
210.45176        160.40146        245.61578
213.89571        165.61916        136.44189
216.58132        173.01865        87.21685
217.90046        173.23197        240.04688
210.17367        173.97201        242.20789
210.86018        170.88656        275.87598
217.37496        185.50472        242.00321
217.46735        186.43940        96.51805
210.29370        186.05801        121.33132
211.69843        196.26681        163.37791
210.79664        190.29910        87.81651
216.02746        189.87738        136.99531
210.57317        190.29185        240.65942
216.86400        187.36063        282.64180
210.41827        195.11152        110.60401
212.39687        197.16892        152.56109
210.22310        201.63049        105.86421
209.66311        201.36099        262.64617
210.60296        206.11476        235.44980
209.58048        207.25124        243.47222
210.34867        213.03311        99.95000
212.70499        217.54050        241.22226
216.28446        218.15682        276.28437
215.90715        230.70639        182.90956
212.35033        225.82027        277.50687
210.06895        245.94148        272.27868
215.55206        95.38249        149.30645
215.73088        128.26474        101.92386
215.94279        138.41938        100.26561
222.46640        153.21739        150.17170
217.62248        152.33616        207.86434
218.96638        144.97503        252.21876
220.01561        144.96058        264.35938
216.65522        152.52893        89.80225
215.34110        155.61227        100.10963
218.21072        158.87742        129.32327
219.17359        154.12248        143.71195
215.74039        155.38957        244.81495
218.69691        163.21561        87.47828
215.94867        160.55878        99.35335
218.68609        162.21210        113.46620
218.93600        161.77379        205.42506
216.51448        163.15887        241.64103
218.94494        163.98494        95.56901
225.28927        169.24092        138.31820
217.98714        165.18519        284.59400
219.60612        172.77714        96.72932
216.50832        170.67571        130.39319
218.16989        176.40032        139.08971
216.09273        177.07444        253.95339
218.01157        173.03676        283.13901
219.76132        173.81798        118.05475
214.34366        175.89382        276.03769
215.22402        183.26749        90.01930
215.04759        183.71413        110.24136
216.50496        185.92957        115.47512
215.79391        185.75702        120.84901
217.95210        189.09389        148.06605
219.37074        191.42673        128.01695
221.24637        194.80615        159.17119
226.01578        197.82680        106.39989
215.90066        195.46249        235.24658
215.99537        198.34591        241.88819
218.39078        200.27437        120.25154
216.20646        206.29898        110.35463
216.28022        205.59850        115.92998
231.42941        206.23424        118.00952
215.99760        205.33529        240.53809
218.34522        210.06953        150.50228
215.97259        214.22164        216.28444
218.39589        215.19664        100.05132
218.36139        216.71650        124.38361
215.40019        220.90134        175.80333
215.85134        220.56637        183.49278
218.24927        220.35211        205.85922
218.20595        228.95301        203.23866
214.50595        226.18086        245.49600
215.80953        233.24575        251.21836
218.19607        231.53434        271.90592
214.14947        240.53214        272.81356
215.10622        253.25631        257.20175
215.86648        250.30508        265.08168
220.98328        148.44265        98.89793
224.14687        151.47856        107.44692
219.91388        150.82528        250.50132
220.62947        158.72878        81.33228
220.52753        160.60913        215.37895
220.52445        159.48406        255.14092
220.22635        160.98977        280.92643
229.55602        172.95556        210.15710
228.04370        179.85384        88.47259
220.82025        189.75254        115.52867
222.21245        197.04830        138.04806
220.83372        193.07617        221.17009
220.41841        196.04031        175.07687
223.70555        202.41726        165.80460
229.39963        198.60920        203.33204
220.91895        199.84889        215.78584
221.27342        201.12721        279.74567
220.66883        207.69925        117.12212
229.53408        209.82946        213.25948
220.11084        210.30797        108.09649
218.42930        209.90657        240.92119
220.64430        210.46697        247.85712
224.30852        212.36767        273.77655
220.48745        217.45675        219.22620
223.02066        217.52908        250.63399
222.07796        225.98700        250.78897
220.12751        235.26063        260.90931
220.01084        240.35619        259.00941
221.32288        245.78211        262.38125
233.39156        154.35634        114.85873
228.56629        153.35573        129.52111
226.17789        150.80575        258.15041
225.96416        152.06886        267.62102
230.33409        162.23301        66.68575
225.68991        158.10300        81.14777
224.18942        155.62629        150.41501
228.56954        162.22199        209.37503
234.63287        159.97786        218.46067
228.07317        162.35051        105.45752
234.56781        163.50606        122.12417
225.72484        160.90355        245.13784
226.60050        160.49554        250.57637
226.10823        157.82490        279.60991
230.65556        165.40480        75.25935
226.01891        165.54020        94.33419
230.56468        170.89651        199.77415
224.41407        165.13336        247.80578
225.40485        166.27876        277.56349
230.32044        173.21004        65.61154
229.58936        174.85062        74.05528
226.07256        171.01413        95.59878
231.33296        173.32432        115.20563
224.37958        170.95286        247.09915
228.08558        175.97879        98.31140
226.36011        181.94496        109.35942
234.38107        179.09614        123.16314
232.82169        184.05617        204.36164
228.92632        178.85589        248.11824
226.11580        178.03404        283.65617
231.89730        192.30469        141.07937
225.88785        185.91230        280.95221
225.92125        190.14768        115.84962
232.66488        188.14880        217.75655
225.95864        193.48949        244.19545
231.63144        197.41571        218.16708
225.93190        194.12711        225.84104
228.41043        195.35994        278.13072
227.29813        205.34091        141.73007
229.35767        200.06277        251.04352
226.61565        205.26863        150.27209
230.16980        212.02351        149.24029
225.54780        211.86557        247.68351
224.84698        209.66872        282.75576
232.03539        217.90508        103.91090
229.91075        218.49207        128.79907
229.98457        218.42402        207.13029
226.75515        218.56679        255.26500
225.64144        219.88969        262.94287
233.07925        220.53603        199.48013
225.45677        230.15195        264.26623
224.06354        232.56260        255.21151
231.73947        162.57002        256.42037
229.11226        160.81301        270.98776
234.05281        162.95822        101.75310
232.15579        168.50764        265.20914
234.06848        172.11763        221.06239
243.10450        172.34660        229.54349
231.18021        170.83515        274.34771
234.15266        172.68395        254.21246
230.34001        175.88473        277.45043
231.25113        183.98776        273.12305
232.79677        189.90785        250.83701
234.55903        194.56943        229.28488
229.66565        204.99142        271.88262
230.76459        205.78700        250.79780
233.39326        200.15188        262.00317
229.87273        210.32607        255.40535
234.73060        165.02059        85.51221
235.28051        165.86144        200.11578
235.29013        165.42564        227.44041
233.46861        171.29081        245.50581
235.21949        178.82526        264.71171
241.76259        178.92611        73.03495
242.15154        183.74349        228.58764
235.00876        183.81853        255.28463
237.18046        190.37662        120.70139
235.73015        191.15270        270.32170
242.40315        197.69933        208.77666
236.48920        208.92110        200.54999
243.87614        221.00525        140.65656
240.71641        153.71264        93.14901
241.72357        164.28986        72.90951
244.40909        160.93785        82.45185
241.92339        168.87909        86.07854
241.17144        162.73941        107.96653
240.82968        164.96625        95.19983
240.53711        165.53740        200.31356
242.27805        167.92190        209.30828
242.51232        173.23726        65.09339
240.73146        173.23491        199.55632
243.98966        174.08227        217.99197
241.46798        175.38679        111.00175
240.23386        175.77249        209.53711
243.44659        185.99999        106.60031
246.03644        196.17312        194.42322
243.29785        186.72766        209.72748
242.36482        184.13509        218.21786
242.44536        198.22759        111.23777
243.02391        209.69052        207.76270
248.17891        209.53147        99.44956
240.42458        215.77602        100.13741
243.92860        217.99539        107.11580
244.98248        147.41231        100.86764
244.95728        160.78461        98.01351
244.54631        171.31439        105.86353
247.36368        179.60594        140.73747
244.91896        175.36312        205.95282
245.61352        181.27218        81.24463
245.34186        182.54563        153.01674
248.93079        185.95114        163.36542
248.53096        189.92410        173.52054
246.71304        188.97664        184.96717
245.76048        190.65672        129.84311
249.73372        198.47763        96.74008
247.19125        197.86956        130.29460
245.03723        205.89211        95.85793
247.24521        207.95213        130.29068
246.65385        218.11456        126.54619
252.04154        157.87828        100.00310
250.48680        155.06143        105.26246
253.29394        161.54657        88.78784
251.19661        163.37061        105.42177
251.64432        170.12460        73.37313
252.77014        170.76383        85.53669
252.55385        170.54213        97.91891
252.22813        170.99605        108.09336
251.18134        172.58576        117.70960
250.55987        175.94599        128.31400
253.93716        184.37357        152.73759
250.43820        181.96500        210.30954
250.63243        183.50964        217.51133
250.96921        182.09603        226.76616
254.03149        185.31696        103.60045
250.79971        188.98776        116.91767
257.81264        192.87514        129.53525
255.62645        199.20403        115.01554
250.63643        209.98305        109.72789
253.55353        212.91292        138.30615
252.08914        220.14814        147.46271
250.41960        232.04561        144.38241
250.47290        233.70050        155.25069
250.86870        242.00021        155.00592
260.03277        161.75968        97.52371
257.87908        181.26174        141.49101
254.48894        205.84275        105.70006
255.78488        207.07420        125.08887
257.19253        226.42501        150.62192
256.11062        230.44382        138.46196
255.46207        230.66345        153.27499
255.25871        240.33262        148.72050
260.98491        166.21723        108.72253
260.70842        173.86425        123.33192
262.39106        191.11295        108.07688
