ply
format ascii 1.0
comment Created by Open3D
element vertex 1460
property float x
property float y
property float z
end_header
100.679993 145.679993 160.679993
100.679993 150.679993 105.679993
100.679993 150.679993 110.679993
100.679993 150.679993 120.679993
100.679993 150.679993 125.679993
100.679993 150.679993 130.679993
100.679993 150.679993 160.679993
100.679993 150.679993 165.679993
100.679993 150.679993 170.679993
100.679993 155.679993 95.679993
100.679993 155.679993 120.679993
100.679993 155.679993 125.679993
100.679993 155.679993 130.679993
100.679993 155.679993 160.679993
100.679993 155.679993 175.679993
100.679993 160.679993 95.679993
100.679993 160.679993 120.679993
100.679993 160.679993 125.679993
100.679993 160.679993 145.679993
100.679993 160.679993 170.679993
100.679993 160.679993 175.679993
100.679993 165.679993 90.679993
100.679993 165.679993 95.679993
100.679993 165.679993 105.679993
100.679993 165.679993 120.679993
100.679993 165.679993 125.679993
100.679993 165.679993 155.679993
100.679993 165.679993 160.679993
100.679993 165.679993 165.679993
100.679993 170.679993 130.679993
100.679993 170.679993 135.679993
100.679993 170.679993 150.679993
100.679993 170.679993 155.679993
100.679993 170.679993 170.679993
100.679993 175.679993 95.679993
100.679993 175.679993 115.679993
100.679993 175.679993 140.679993
100.679993 180.679993 90.679993
100.679993 180.679993 95.679993
100.679993 180.679993 130.679993
100.679993 180.679993 135.679993
100.679993 185.679993 100.679993
100.679993 185.679993 120.679993
100.679993 185.679993 125.679993
105.679993 100.679993 135.679993
105.679993 100.679993 140.679993
105.679993 105.679993 135.679993
105.679993 105.679993 140.679993
105.679993 110.679993 125.679993
105.679993 110.679993 130.679993
105.679993 115.679993 140.679993
105.679993 115.679993 155.679993
105.679993 115.679993 160.679993
105.679993 120.679993 160.679993
105.679993 125.679993 100.679993
105.679993 125.679993 105.679993
105.679993 125.679993 135.679993
105.679993 125.679993 140.679993
105.679993 125.679993 155.679993
105.679993 125.679993 160.679993
105.679993 125.679993 165.679993
105.679993 130.679993 100.679993
105.679993 130.679993 145.679993
105.679993 130.679993 155.679993
105.679993 130.679993 160.679993
105.679993 130.679993 165.679993
105.679993 130.679993 170.679993
105.679993 135.679993 100.679993
105.679993 135.679993 125.679993
105.679993 135.679993 155.679993
105.679993 135.679993 160.679993
105.679993 140.679993 110.679993
105.679993 140.679993 125.679993
105.679993 140.679993 150.679993
105.679993 140.679993 155.679993
105.679993 140.679993 160.679993
105.679993 140.679993 170.679993
105.679993 145.679993 95.679993
105.679993 145.679993 125.679993
105.679993 145.679993 140.679993
105.679993 145.679993 160.679993
105.679993 145.679993 165.679993
105.679993 150.679993 85.679993
105.679993 150.679993 90.679993
105.679993 150.679993 95.679993
105.679993 150.679993 100.679993
105.679993 150.679993 105.679993
105.679993 150.679993 115.679993
105.679993 150.679993 125.679993
105.679993 150.679993 160.679993
105.679993 150.679993 165.679993
105.679993 150.679993 170.679993
105.679993 150.679993 175.679993
105.679993 155.679993 85.679993
105.679993 155.679993 105.679993
105.679993 155.679993 110.679993
105.679993 155.679993 130.679993
105.679993 155.679993 160.679993
105.679993 155.679993 170.679993
105.679993 155.679993 175.679993
105.679993 160.679993 85.679993
105.679993 160.679993 90.679993
105.679993 160.679993 95.679993
105.679993 160.679993 100.679993
105.679993 160.679993 130.679993
105.679993 160.679993 145.679993
105.679993 160.679993 150.679993
105.679993 160.679993 155.679993
105.679993 160.679993 165.679993
105.679993 160.679993 170.679993
105.679993 165.679993 90.679993
105.679993 165.679993 100.679993
105.679993 165.679993 105.679993
105.679993 165.679993 110.679993
105.679993 165.679993 135.679993
105.679993 165.679993 140.679993
105.679993 165.679993 145.679993
105.679993 165.679993 165.679993
105.679993 165.679993 170.679993
105.679993 170.679993 100.679993
105.679993 170.679993 105.679993
105.679993 170.679993 120.679993
105.679993 170.679993 140.679993
105.679993 175.679993 95.679993
105.679993 175.679993 105.679993
105.679993 175.679993 125.679993
105.679993 175.679993 130.679993
105.679993 175.679993 135.679993
105.679993 175.679993 140.679993
105.679993 180.679993 90.679993
105.679993 180.679993 95.679993
105.679993 180.679993 100.679993
105.679993 180.679993 105.679993
105.679993 180.679993 125.679993
105.679993 180.679993 130.679993
105.679993 185.679993 100.679993
105.679993 185.679993 105.679993
110.679993 90.679993 100.679993
110.679993 95.679993 95.679993
110.679993 95.679993 100.679993
110.679993 95.679993 130.679993
110.679993 95.679993 135.679993
110.679993 95.679993 140.679993
110.679993 100.679993 115.679993
110.679993 100.679993 130.679993
110.679993 100.679993 135.679993
110.679993 100.679993 140.679993
110.679993 100.679993 145.679993
110.679993 105.679993 120.679993
110.679993 105.679993 125.679993
110.679993 105.679993 140.679993
110.679993 105.679993 145.679993
110.679993 110.679993 125.679993
110.679993 110.679993 140.679993
110.679993 115.679993 95.679993
110.679993 115.679993 100.679993
110.679993 115.679993 110.679993
110.679993 115.679993 115.679993
110.679993 115.679993 125.679993
110.679993 115.679993 155.679993
110.679993 115.679993 160.679993
110.679993 115.679993 165.679993
110.679993 120.679993 90.679993
110.679993 120.679993 95.679993
110.679993 120.679993 100.679993
110.679993 120.679993 110.679993
110.679993 120.679993 115.679993
110.679993 120.679993 125.679993
110.679993 120.679993 155.679993
110.679993 120.679993 165.679993
110.679993 125.679993 90.679993
110.679993 125.679993 100.679993
110.679993 125.679993 105.679993
110.679993 125.679993 110.679993
110.679993 125.679993 115.679993
110.679993 125.679993 125.679993
110.679993 125.679993 150.679993
110.679993 125.679993 170.679993
110.679993 130.679993 100.679993
110.679993 130.679993 110.679993
110.679993 130.679993 135.679993
110.679993 130.679993 170.679993
110.679993 130.679993 175.679993
110.679993 135.679993 95.679993
110.679993 135.679993 100.679993
110.679993 135.679993 105.679993
110.679993 135.679993 115.679993
110.679993 135.679993 120.679993
110.679993 135.679993 155.679993
110.679993 135.679993 165.679993
110.679993 135.679993 175.679993
110.679993 140.679993 110.679993
110.679993 140.679993 115.679993
110.679993 140.679993 125.679993
110.679993 140.679993 130.679993
110.679993 140.679993 140.679993
110.679993 140.679993 160.679993
110.679993 140.679993 170.679993
110.679993 145.679993 90.679993
110.679993 145.679993 95.679993
110.679993 145.679993 105.679993
110.679993 145.679993 110.679993
110.679993 145.679993 115.679993
110.679993 145.679993 135.679993
110.679993 145.679993 140.679993
110.679993 145.679993 160.679993
110.679993 145.679993 165.679993
110.679993 150.679993 95.679993
110.679993 150.679993 105.679993
110.679993 150.679993 130.679993
110.679993 155.679993 85.679993
110.679993 155.679993 90.679993
110.679993 155.679993 105.679993
110.679993 155.679993 110.679993
110.679993 155.679993 130.679993
110.679993 160.679993 80.679993
110.679993 160.679993 85.679993
110.679993 160.679993 90.679993
110.679993 160.679993 95.679993
110.679993 160.679993 115.679993
110.679993 160.679993 120.679993
110.679993 165.679993 100.679993
110.679993 165.679993 105.679993
110.679993 165.679993 110.679993
110.679993 165.679993 125.679993
110.679993 170.679993 95.679993
110.679993 170.679993 115.679993
110.679993 175.679993 95.679993
110.679993 175.679993 100.679993
110.679993 175.679993 105.679993
110.679993 175.679993 110.679993
110.679993 175.679993 130.679993
110.679993 175.679993 150.679993
110.679993 180.679993 90.679993
110.679993 180.679993 95.679993
110.679993 180.679993 150.679993
110.679993 180.679993 155.679993
110.679993 180.679993 165.679993
110.679993 185.679993 105.679993
110.679993 185.679993 110.679993
110.679993 185.679993 155.679993
110.679993 185.679993 160.679993
115.679993 95.679993 95.679993
115.679993 95.679993 100.679993
115.679993 95.679993 105.679993
115.679993 95.679993 115.679993
115.679993 95.679993 135.679993
115.679993 100.679993 100.679993
115.679993 100.679993 110.679993
115.679993 100.679993 115.679993
115.679993 100.679993 120.679993
115.679993 100.679993 135.679993
115.679993 105.679993 115.679993
115.679993 105.679993 135.679993
115.679993 105.679993 145.679993
115.679993 105.679993 150.679993
115.679993 105.679993 160.679993
115.679993 105.679993 165.679993
115.679993 110.679993 95.679993
115.679993 110.679993 120.679993
115.679993 110.679993 125.679993
115.679993 110.679993 130.679993
115.679993 110.679993 145.679993
115.679993 115.679993 95.679993
115.679993 115.679993 100.679993
115.679993 115.679993 120.679993
115.679993 120.679993 95.679993
115.679993 120.679993 100.679993
115.679993 120.679993 120.679993
115.679993 120.679993 135.679993
115.679993 120.679993 150.679993
115.679993 120.679993 155.679993
115.679993 120.679993 165.679993
115.679993 120.679993 170.679993
115.679993 125.679993 100.679993
115.679993 125.679993 105.679993
115.679993 125.679993 110.679993
115.679993 125.679993 125.679993
115.679993 125.679993 135.679993
115.679993 125.679993 155.679993
115.679993 125.679993 160.679993
115.679993 125.679993 165.679993
115.679993 130.679993 100.679993
115.679993 130.679993 130.679993
115.679993 130.679993 175.679993
115.679993 135.679993 95.679993
115.679993 135.679993 100.679993
115.679993 135.679993 115.679993
115.679993 135.679993 160.679993
115.679993 135.679993 165.679993
115.679993 135.679993 175.679993
115.679993 140.679993 100.679993
115.679993 140.679993 160.679993
115.679993 140.679993 165.679993
115.679993 145.679993 90.679993
115.679993 145.679993 100.679993
115.679993 145.679993 105.679993
115.679993 145.679993 165.679993
115.679993 145.679993 170.679993
115.679993 145.679993 175.679993
115.679993 150.679993 80.679993
115.679993 150.679993 90.679993
115.679993 150.679993 95.679993
115.679993 150.679993 100.679993
115.679993 150.679993 110.679993
115.679993 150.679993 125.679993
115.679993 150.679993 180.679993
115.679993 155.679993 85.679993
115.679993 155.679993 110.679993
115.679993 155.679993 130.679993
115.679993 160.679993 75.679993
115.679993 160.679993 80.679993
115.679993 160.679993 85.679993
115.679993 160.679993 90.679993
115.679993 160.679993 100.679993
115.679993 160.679993 155.679993
115.679993 165.679993 95.679993
115.679993 165.679993 100.679993
115.679993 165.679993 105.679993
115.679993 165.679993 115.679993
115.679993 165.679993 150.679993
115.679993 170.679993 100.679993
115.679993 170.679993 110.679993
115.679993 170.679993 160.679993
115.679993 175.679993 105.679993
115.679993 175.679993 110.679993
115.679993 175.679993 115.679993
115.679993 175.679993 160.679993
115.679993 180.679993 110.679993
115.679993 180.679993 150.679993
115.679993 180.679993 155.679993
115.679993 180.679993 160.679993
115.679993 180.679993 165.679993
115.679993 185.679993 110.679993
115.679993 185.679993 150.679993
115.679993 185.679993 155.679993
115.679993 185.679993 160.679993
115.679993 185.679993 165.679993
115.679993 190.679993 165.679993
115.679993 195.679993 150.679993
115.679993 195.679993 155.679993
115.679993 195.679993 160.679993
120.679993 90.679993 115.679993
120.679993 95.679993 100.679993
120.679993 95.679993 110.679993
120.679993 95.679993 115.679993
120.679993 95.679993 135.679993
120.679993 95.679993 140.679993
120.679993 100.679993 100.679993
120.679993 100.679993 115.679993
120.679993 100.679993 120.679993
120.679993 100.679993 130.679993
120.679993 100.679993 135.679993
120.679993 100.679993 140.679993
120.679993 100.679993 145.679993
120.679993 105.679993 110.679993
120.679993 105.679993 120.679993
120.679993 105.679993 135.679993
120.679993 105.679993 145.679993
120.679993 105.679993 150.679993
120.679993 105.679993 160.679993
120.679993 110.679993 100.679993
120.679993 110.679993 115.679993
120.679993 110.679993 120.679993
120.679993 110.679993 135.679993
120.679993 110.679993 165.679993
120.679993 110.679993 170.679993
120.679993 115.679993 95.679993
120.679993 115.679993 100.679993
120.679993 115.679993 105.679993
120.679993 115.679993 120.679993
120.679993 115.679993 130.679993
120.679993 115.679993 135.679993
120.679993 115.679993 155.679993
120.679993 115.679993 160.679993
120.679993 115.679993 170.679993
120.679993 120.679993 95.679993
120.679993 120.679993 100.679993
120.679993 120.679993 105.679993
120.679993 120.679993 110.679993
120.679993 120.679993 115.679993
120.679993 120.679993 120.679993
120.679993 120.679993 125.679993
120.679993 120.679993 130.679993
120.679993 120.679993 145.679993
120.679993 120.679993 155.679993
120.679993 120.679993 160.679993
120.679993 120.679993 165.679993
120.679993 120.679993 175.679993
120.679993 125.679993 105.679993
120.679993 125.679993 110.679993
120.679993 125.679993 125.679993
120.679993 125.679993 135.679993
120.679993 125.679993 150.679993
120.679993 125.679993 155.679993
120.679993 130.679993 95.679993
120.679993 130.679993 105.679993
120.679993 130.679993 115.679993
120.679993 130.679993 135.679993
120.679993 130.679993 155.679993
120.679993 130.679993 160.679993
120.679993 130.679993 165.679993
120.679993 130.679993 175.679993
120.679993 135.679993 100.679993
120.679993 135.679993 105.679993
120.679993 135.679993 110.679993
120.679993 135.679993 120.679993
120.679993 135.679993 160.679993
120.679993 135.679993 165.679993
120.679993 135.679993 175.679993
120.679993 135.679993 180.679993
120.679993 140.679993 165.679993
120.679993 140.679993 180.679993
120.679993 145.679993 105.679993
120.679993 145.679993 110.679993
120.679993 145.679993 125.679993
120.679993 145.679993 175.679993
120.679993 145.679993 180.679993
120.679993 150.679993 85.679993
120.679993 150.679993 90.679993
120.679993 150.679993 185.679993
120.679993 155.679993 85.679993
120.679993 155.679993 90.679993
120.679993 155.679993 100.679993
120.679993 155.679993 105.679993
120.679993 155.679993 110.679993
120.679993 155.679993 125.679993
120.679993 155.679993 135.679993
120.679993 160.679993 75.679993
120.679993 160.679993 80.679993
120.679993 160.679993 85.679993
120.679993 160.679993 90.679993
120.679993 160.679993 95.679993
120.679993 160.679993 100.679993
120.679993 160.679993 110.679993
120.679993 160.679993 115.679993
120.679993 160.679993 125.679993
120.679993 160.679993 160.679993
120.679993 165.679993 100.679993
120.679993 165.679993 105.679993
120.679993 165.679993 125.679993
120.679993 165.679993 145.679993
120.679993 165.679993 150.679993
120.679993 165.679993 155.679993
120.679993 165.679993 160.679993
120.679993 170.679993 145.679993
120.679993 170.679993 160.679993
120.679993 175.679993 145.679993
120.679993 175.679993 150.679993
120.679993 175.679993 160.679993
120.679993 175.679993 165.679993
120.679993 180.679993 120.679993
120.679993 180.679993 150.679993
120.679993 180.679993 165.679993
120.679993 185.679993 120.679993
120.679993 185.679993 145.679993
120.679993 185.679993 150.679993
120.679993 185.679993 155.679993
120.679993 185.679993 165.679993
120.679993 190.679993 150.679993
120.679993 190.679993 155.679993
120.679993 190.679993 160.679993
120.679993 190.679993 165.679993
120.679993 195.679993 155.679993
120.679993 195.679993 160.679993
120.679993 200.679993 160.679993
125.679993 90.679993 115.679993
125.679993 95.679993 105.679993
125.679993 95.679993 110.679993
125.679993 95.679993 115.679993
125.679993 95.679993 120.679993
125.679993 95.679993 125.679993
125.679993 100.679993 100.679993
125.679993 100.679993 105.679993
125.679993 100.679993 120.679993
125.679993 100.679993 125.679993
125.679993 100.679993 130.679993
125.679993 100.679993 135.679993
125.679993 100.679993 140.679993
125.679993 105.679993 115.679993
125.679993 105.679993 135.679993
125.679993 105.679993 140.679993
125.679993 105.679993 145.679993
125.679993 105.679993 160.679993
125.679993 110.679993 115.679993
125.679993 110.679993 120.679993
125.679993 110.679993 135.679993
125.679993 110.679993 140.679993
125.679993 110.679993 155.679993
125.679993 110.679993 160.679993
125.679993 110.679993 170.679993
125.679993 110.679993 180.679993
125.679993 115.679993 100.679993
125.679993 115.679993 105.679993
125.679993 115.679993 115.679993
125.679993 115.679993 120.679993
125.679993 115.679993 125.679993
125.679993 115.679993 175.679993
125.679993 115.679993 180.679993
125.679993 120.679993 100.679993
125.679993 120.679993 105.679993
125.679993 120.679993 115.679993
125.679993 120.679993 120.679993
125.679993 120.679993 125.679993
125.679993 120.679993 130.679993
125.679993 120.679993 135.679993
125.679993 120.679993 155.679993
125.679993 120.679993 160.679993
125.679993 120.679993 170.679993
125.679993 120.679993 175.679993
125.679993 125.679993 70.679993
125.679993 125.679993 75.679993
125.679993 125.679993 90.679993
125.679993 125.679993 95.679993
125.679993 125.679993 105.679993
125.679993 125.679993 130.679993
125.679993 125.679993 135.679993
125.679993 125.679993 140.679993
125.679993 125.679993 160.679993
125.679993 125.679993 165.679993
125.679993 130.679993 70.679993
125.679993 130.679993 75.679993
125.679993 130.679993 80.679993
125.679993 130.679993 110.679993
125.679993 130.679993 120.679993
125.679993 130.679993 125.679993
125.679993 130.679993 130.679993
125.679993 130.679993 135.679993
125.679993 130.679993 155.679993
125.679993 130.679993 160.679993
125.679993 135.679993 75.679993
125.679993 135.679993 90.679993
125.679993 135.679993 100.679993
125.679993 135.679993 105.679993
125.679993 135.679993 110.679993
125.679993 135.679993 120.679993
125.679993 135.679993 125.679993
125.679993 135.679993 180.679993
125.679993 140.679993 75.679993
125.679993 140.679993 80.679993
125.679993 140.679993 110.679993
125.679993 140.679993 115.679993
125.679993 140.679993 120.679993
125.679993 140.679993 125.679993
125.679993 140.679993 165.679993
125.679993 140.679993 180.679993
125.679993 140.679993 185.679993
125.679993 140.679993 205.679993
125.679993 140.679993 210.679993
125.679993 145.679993 80.679993
125.679993 145.679993 85.679993
125.679993 145.679993 110.679993
125.679993 145.679993 120.679993
125.679993 145.679993 160.679993
125.679993 145.679993 165.679993
125.679993 145.679993 170.679993
125.679993 145.679993 180.679993
125.679993 145.679993 195.679993
125.679993 145.679993 205.679993
125.679993 145.679993 210.679993
125.679993 150.679993 160.679993
125.679993 150.679993 170.679993
125.679993 150.679993 185.679993
125.679993 150.679993 190.679993
125.679993 150.679993 195.679993
125.679993 150.679993 200.679993
125.679993 155.679993 80.679993
125.679993 155.679993 85.679993
125.679993 155.679993 90.679993
125.679993 155.679993 95.679993
125.679993 155.679993 105.679993
125.679993 155.679993 110.679993
125.679993 155.679993 135.679993
125.679993 155.679993 140.679993
125.679993 155.679993 145.679993
125.679993 155.679993 150.679993
125.679993 155.679993 155.679993
125.679993 155.679993 170.679993
125.679993 155.679993 185.679993
125.679993 155.679993 195.679993
125.679993 160.679993 80.679993
125.679993 160.679993 85.679993
125.679993 160.679993 90.679993
125.679993 160.679993 95.679993
125.679993 160.679993 150.679993
125.679993 160.679993 160.679993
125.679993 160.679993 165.679993
125.679993 165.679993 80.679993
125.679993 165.679993 155.679993
125.679993 165.679993 160.679993
125.679993 165.679993 165.679993
125.679993 165.679993 170.679993
125.679993 170.679993 120.679993
125.679993 170.679993 125.679993
125.679993 170.679993 150.679993
125.679993 170.679993 165.679993
125.679993 170.679993 170.679993
125.679993 175.679993 120.679993
125.679993 175.679993 150.679993
125.679993 175.679993 165.679993
125.679993 180.679993 120.679993
125.679993 180.679993 125.679993
125.679993 180.679993 150.679993
125.679993 180.679993 155.679993
125.679993 180.679993 160.679993
125.679993 180.679993 165.679993
125.679993 180.679993 170.679993
125.679993 185.679993 120.679993
125.679993 185.679993 125.679993
125.679993 185.679993 130.679993
125.679993 185.679993 150.679993
125.679993 185.679993 155.679993
125.679993 185.679993 160.679993
125.679993 185.679993 165.679993
125.679993 190.679993 125.679993
125.679993 190.679993 155.679993
125.679993 190.679993 160.679993
125.679993 195.679993 155.679993
125.679993 195.679993 160.679993
125.679993 195.679993 165.679993
130.679993 90.679993 170.679993
130.679993 95.679993 110.679993
130.679993 95.679993 115.679993
130.679993 95.679993 140.679993
130.679993 95.679993 145.679993
130.679993 95.679993 165.679993
130.679993 95.679993 170.679993
130.679993 100.679993 105.679993
130.679993 100.679993 115.679993
130.679993 100.679993 130.679993
130.679993 100.679993 135.679993
130.679993 100.679993 145.679993
130.679993 100.679993 160.679993
130.679993 100.679993 165.679993
130.679993 100.679993 175.679993
130.679993 105.679993 110.679993
130.679993 105.679993 120.679993
130.679993 105.679993 135.679993
130.679993 105.679993 155.679993
130.679993 105.679993 160.679993
130.679993 105.679993 165.679993
130.679993 105.679993 180.679993
130.679993 110.679993 120.679993
130.679993 110.679993 125.679993
130.679993 110.679993 135.679993
130.679993 110.679993 140.679993
130.679993 110.679993 160.679993
130.679993 110.679993 165.679993
130.679993 110.679993 170.679993
130.679993 110.679993 175.679993
130.679993 110.679993 180.679993
130.679993 110.679993 185.679993
130.679993 115.679993 90.679993
130.679993 115.679993 95.679993
130.679993 115.679993 100.679993
130.679993 115.679993 110.679993
130.679993 115.679993 125.679993
130.679993 115.679993 130.679993
130.679993 115.679993 135.679993
130.679993 115.679993 140.679993
130.679993 115.679993 145.679993
130.679993 115.679993 170.679993
130.679993 115.679993 180.679993
130.679993 120.679993 95.679993
130.679993 120.679993 100.679993
130.679993 120.679993 110.679993
130.679993 120.679993 115.679993
130.679993 120.679993 130.679993
130.679993 120.679993 135.679993
130.679993 120.679993 140.679993
130.679993 120.679993 145.679993
130.679993 120.679993 165.679993
130.679993 120.679993 170.679993
130.679993 120.679993 175.679993
130.679993 120.679993 180.679993
130.679993 120.679993 185.679993
130.679993 125.679993 90.679993
130.679993 125.679993 95.679993
130.679993 125.679993 115.679993
130.679993 125.679993 120.679993
130.679993 125.679993 135.679993
130.679993 125.679993 145.679993
130.679993 125.679993 155.679993
130.679993 125.679993 170.679993
130.679993 125.679993 175.679993
130.679993 125.679993 180.679993
130.679993 130.679993 75.679993
130.679993 130.679993 80.679993
130.679993 130.679993 85.679993
130.679993 130.679993 90.679993
130.679993 130.679993 95.679993
130.679993 130.679993 105.679993
130.679993 130.679993 115.679993
130.679993 130.679993 120.679993
130.679993 130.679993 130.679993
130.679993 130.679993 155.679993
130.679993 130.679993 160.679993
130.679993 130.679993 165.679993
130.679993 135.679993 75.679993
130.679993 135.679993 85.679993
130.679993 135.679993 90.679993
130.679993 135.679993 115.679993
130.679993 135.679993 210.679993
130.679993 140.679993 75.679993
130.679993 140.679993 90.679993
130.679993 140.679993 95.679993
130.679993 140.679993 100.679993
130.679993 140.679993 105.679993
130.679993 140.679993 110.679993
130.679993 140.679993 185.679993
130.679993 140.679993 190.679993
130.679993 140.679993 205.679993
130.679993 140.679993 210.679993
130.679993 145.679993 80.679993
130.679993 145.679993 85.679993
130.679993 145.679993 160.679993
130.679993 145.679993 165.679993
130.679993 145.679993 170.679993
130.679993 145.679993 185.679993
130.679993 145.679993 210.679993
130.679993 145.679993 215.679993
130.679993 150.679993 110.679993
130.679993 150.679993 145.679993
130.679993 150.679993 165.679993
130.679993 150.679993 185.679993
130.679993 150.679993 195.679993
130.679993 150.679993 200.679993
130.679993 150.679993 210.679993
130.679993 150.679993 215.679993
130.679993 155.679993 150.679993
130.679993 155.679993 155.679993
130.679993 155.679993 160.679993
130.679993 155.679993 170.679993
130.679993 155.679993 200.679993
130.679993 155.679993 205.679993
130.679993 155.679993 210.679993
130.679993 160.679993 80.679993
130.679993 160.679993 85.679993
130.679993 160.679993 90.679993
130.679993 160.679993 95.679993
130.679993 160.679993 155.679993
130.679993 160.679993 160.679993
130.679993 160.679993 165.679993
130.679993 160.679993 170.679993
130.679993 165.679993 80.679993
130.679993 165.679993 85.679993
130.679993 165.679993 145.679993
130.679993 165.679993 150.679993
130.679993 165.679993 155.679993
130.679993 165.679993 165.679993
130.679993 170.679993 155.679993
130.679993 170.679993 160.679993
130.679993 170.679993 165.679993
130.679993 175.679993 125.679993
130.679993 175.679993 140.679993
130.679993 175.679993 150.679993
130.679993 175.679993 160.679993
130.679993 180.679993 120.679993
130.679993 180.679993 125.679993
130.679993 180.679993 130.679993
130.679993 180.679993 135.679993
130.679993 180.679993 140.679993
130.679993 180.679993 155.679993
130.679993 185.679993 125.679993
130.679993 185.679993 130.679993
130.679993 185.679993 135.679993
130.679993 190.679993 125.679993
135.679993 75.679993 135.679993
135.679993 80.679993 135.679993
135.679993 80.679993 140.679993
135.679993 80.679993 145.679993
135.679993 85.679993 135.679993
135.679993 85.679993 140.679993
135.679993 85.679993 145.679993
135.679993 85.679993 150.679993
135.679993 90.679993 140.679993
135.679993 90.679993 145.679993
135.679993 90.679993 150.679993
135.679993 90.679993 160.679993
135.679993 90.679993 175.679993
135.679993 95.679993 115.679993
135.679993 95.679993 140.679993
135.679993 95.679993 145.679993
135.679993 95.679993 160.679993
135.679993 95.679993 165.679993
135.679993 95.679993 180.679993
135.679993 95.679993 185.679993
135.679993 100.679993 105.679993
135.679993 100.679993 110.679993
135.679993 100.679993 120.679993
135.679993 100.679993 125.679993
135.679993 100.679993 145.679993
135.679993 100.679993 170.679993
135.679993 100.679993 185.679993
135.679993 105.679993 115.679993
135.679993 105.679993 135.679993
135.679993 105.679993 140.679993
135.679993 105.679993 160.679993
135.679993 105.679993 170.679993
135.679993 105.679993 180.679993
135.679993 105.679993 185.679993
135.679993 110.679993 105.679993
135.679993 110.679993 110.679993
135.679993 110.679993 115.679993
135.679993 110.679993 120.679993
135.679993 110.679993 125.679993
135.679993 110.679993 130.679993
135.679993 110.679993 135.679993
135.679993 110.679993 145.679993
135.679993 110.679993 160.679993
135.679993 110.679993 165.679993
135.679993 110.679993 185.679993
135.679993 115.679993 90.679993
135.679993 115.679993 95.679993
135.679993 115.679993 115.679993
135.679993 115.679993 130.679993
135.679993 115.679993 135.679993
135.679993 115.679993 140.679993
135.679993 115.679993 145.679993
135.679993 115.679993 170.679993
135.679993 115.679993 185.679993
135.679993 115.679993 190.679993
135.679993 120.679993 85.679993
135.679993 120.679993 90.679993
135.679993 120.679993 95.679993
135.679993 120.679993 125.679993
135.679993 120.679993 130.679993
135.679993 120.679993 135.679993
135.679993 120.679993 140.679993
135.679993 120.679993 145.679993
135.679993 120.679993 155.679993
135.679993 120.679993 160.679993
135.679993 120.679993 165.679993
135.679993 120.679993 170.679993
135.679993 120.679993 190.679993
135.679993 125.679993 90.679993
135.679993 125.679993 105.679993
135.679993 125.679993 110.679993
135.679993 125.679993 115.679993
135.679993 125.679993 120.679993
135.679993 125.679993 135.679993
135.679993 125.679993 140.679993
135.679993 125.679993 155.679993
135.679993 125.679993 160.679993
135.679993 125.679993 180.679993
135.679993 125.679993 190.679993
135.679993 130.679993 100.679993
135.679993 130.679993 105.679993
135.679993 130.679993 110.679993
135.679993 130.679993 115.679993
135.679993 130.679993 120.679993
135.679993 130.679993 155.679993
135.679993 130.679993 160.679993
135.679993 130.679993 170.679993
135.679993 130.679993 175.679993
135.679993 130.679993 180.679993
135.679993 135.679993 90.679993
135.679993 135.679993 95.679993
135.679993 135.679993 105.679993
135.679993 135.679993 110.679993
135.679993 135.679993 115.679993
135.679993 135.679993 120.679993
135.679993 135.679993 170.679993
135.679993 135.679993 175.679993
135.679993 135.679993 210.679993
135.679993 135.679993 215.679993
135.679993 140.679993 80.679993
135.679993 140.679993 85.679993
135.679993 140.679993 90.679993
135.679993 140.679993 95.679993
135.679993 140.679993 105.679993
135.679993 140.679993 180.679993
135.679993 140.679993 210.679993
135.679993 140.679993 215.679993
135.679993 145.679993 80.679993
135.679993 145.679993 85.679993
135.679993 145.679993 95.679993
135.679993 145.679993 110.679993
135.679993 145.679993 145.679993
135.679993 145.679993 150.679993
135.679993 145.679993 170.679993
135.679993 145.679993 190.679993
135.679993 145.679993 195.679993
135.679993 145.679993 200.679993
135.679993 145.679993 205.679993
135.679993 145.679993 210.679993
135.679993 150.679993 145.679993
135.679993 150.679993 150.679993
135.679993 150.679993 160.679993
135.679993 150.679993 210.679993
135.679993 155.679993 135.679993
135.679993 155.679993 140.679993
135.679993 155.679993 200.679993
135.679993 155.679993 205.679993
135.679993 155.679993 210.679993
135.679993 155.679993 215.679993
135.679993 160.679993 90.679993
135.679993 160.679993 150.679993
135.679993 160.679993 210.679993
135.679993 165.679993 125.679993
135.679993 165.679993 150.679993
135.679993 170.679993 120.679993
135.679993 170.679993 125.679993
135.679993 170.679993 130.679993
135.679993 170.679993 135.679993
135.679993 170.679993 155.679993
135.679993 170.679993 160.679993
135.679993 170.679993 165.679993
135.679993 175.679993 120.679993
135.679993 175.679993 140.679993
135.679993 175.679993 155.679993
135.679993 180.679993 125.679993
135.679993 180.679993 135.679993
135.679993 180.679993 140.679993
135.679993 180.679993 145.679993
135.679993 185.679993 115.679993
135.679993 185.679993 125.679993
135.679993 185.679993 135.679993
135.679993 190.679993 120.679993
135.679993 190.679993 125.679993
135.679993 190.679993 130.679993
140.679993 70.679993 135.679993
140.679993 75.679993 135.679993
140.679993 75.679993 140.679993
140.679993 75.679993 150.679993
140.679993 75.679993 160.679993
140.679993 80.679993 130.679993
140.679993 80.679993 135.679993
140.679993 80.679993 140.679993
140.679993 80.679993 145.679993
140.679993 85.679993 135.679993
140.679993 85.679993 140.679993
140.679993 85.679993 145.679993
140.679993 90.679993 145.679993
140.679993 90.679993 155.679993
140.679993 90.679993 160.679993
140.679993 90.679993 175.679993
140.679993 95.679993 135.679993
140.679993 95.679993 145.679993
140.679993 95.679993 150.679993
140.679993 95.679993 155.679993
140.679993 95.679993 160.679993
140.679993 95.679993 165.679993
140.679993 95.679993 175.679993
140.679993 95.679993 180.679993
140.679993 95.679993 185.679993
140.679993 100.679993 110.679993
140.679993 100.679993 125.679993
140.679993 100.679993 160.679993
140.679993 100.679993 165.679993
140.679993 100.679993 170.679993
140.679993 100.679993 180.679993
140.679993 100.679993 185.679993
140.679993 100.679993 190.679993
140.679993 105.679993 100.679993
140.679993 105.679993 120.679993
140.679993 105.679993 125.679993
140.679993 105.679993 130.679993
140.679993 105.679993 135.679993
140.679993 105.679993 160.679993
140.679993 105.679993 165.679993
140.679993 105.679993 170.679993
140.679993 105.679993 185.679993
140.679993 110.679993 100.679993
140.679993 110.679993 110.679993
140.679993 110.679993 115.679993
140.679993 110.679993 120.679993
140.679993 110.679993 125.679993
140.679993 110.679993 130.679993
140.679993 110.679993 135.679993
140.679993 110.679993 140.679993
140.679993 110.679993 160.679993
140.679993 110.679993 165.679993
140.679993 110.679993 170.679993
140.679993 110.679993 175.679993
140.679993 110.679993 185.679993
140.679993 115.679993 90.679993
140.679993 115.679993 95.679993
140.679993 115.679993 105.679993
140.679993 115.679993 125.679993
140.679993 115.679993 135.679993
140.679993 115.679993 145.679993
140.679993 115.679993 150.679993
140.679993 115.679993 170.679993
140.679993 115.679993 180.679993
140.679993 115.679993 190.679993
140.679993 120.679993 85.679993
140.679993 120.679993 90.679993
140.679993 120.679993 95.679993
140.679993 120.679993 100.679993
140.679993 120.679993 115.679993
140.679993 120.679993 120.679993
140.679993 120.679993 140.679993
140.679993 120.679993 145.679993
140.679993 120.679993 160.679993
140.679993 120.679993 170.679993
140.679993 120.679993 180.679993
140.679993 120.679993 185.679993
140.679993 120.679993 190.679993
140.679993 125.679993 90.679993
140.679993 125.679993 95.679993
140.679993 125.679993 110.679993
140.679993 125.679993 115.679993
140.679993 125.679993 120.679993
140.679993 125.679993 130.679993
140.679993 125.679993 145.679993
140.679993 125.679993 175.679993
140.679993 125.679993 180.679993
140.679993 125.679993 185.679993
140.679993 125.679993 190.679993
140.679993 130.679993 100.679993
140.679993 130.679993 130.679993
140.679993 130.679993 160.679993
140.679993 130.679993 170.679993
140.679993 130.679993 180.679993
140.679993 135.679993 85.679993
140.679993 135.679993 90.679993
140.679993 135.679993 95.679993
140.679993 135.679993 100.679993
140.679993 135.679993 105.679993
140.679993 135.679993 115.679993
140.679993 135.679993 120.679993
140.679993 135.679993 135.679993
140.679993 135.679993 155.679993
140.679993 135.679993 180.679993
140.679993 135.679993 185.679993
140.679993 140.679993 85.679993
140.679993 140.679993 90.679993
140.679993 140.679993 95.679993
140.679993 140.679993 100.679993
140.679993 140.679993 105.679993
140.679993 140.679993 115.679993
140.679993 140.679993 120.679993
140.679993 140.679993 160.679993
140.679993 140.679993 175.679993
140.679993 140.679993 180.679993
140.679993 140.679993 215.679993
140.679993 145.679993 90.679993
140.679993 145.679993 95.679993
140.679993 145.679993 110.679993
140.679993 145.679993 125.679993
140.679993 145.679993 130.679993
140.679993 145.679993 135.679993
140.679993 145.679993 180.679993
140.679993 145.679993 185.679993
140.679993 145.679993 190.679993
140.679993 145.679993 195.679993
140.679993 145.679993 200.679993
140.679993 145.679993 205.679993
140.679993 145.679993 210.679993
140.679993 145.679993 215.679993
140.679993 145.679993 220.679993
140.679993 150.679993 125.679993
140.679993 150.679993 130.679993
140.679993 150.679993 135.679993
140.679993 150.679993 140.679993
140.679993 150.679993 150.679993
140.679993 150.679993 165.679993
140.679993 150.679993 190.679993
140.679993 150.679993 200.679993
140.679993 150.679993 205.679993
140.679993 150.679993 210.679993
140.679993 155.679993 130.679993
140.679993 155.679993 135.679993
140.679993 155.679993 140.679993
140.679993 155.679993 155.679993
140.679993 155.679993 185.679993
140.679993 155.679993 190.679993
140.679993 155.679993 195.679993
140.679993 155.679993 200.679993
140.679993 155.679993 210.679993
140.679993 155.679993 215.679993
140.679993 160.679993 140.679993
140.679993 160.679993 145.679993
140.679993 160.679993 150.679993
140.679993 160.679993 155.679993
140.679993 160.679993 160.679993
140.679993 160.679993 210.679993
140.679993 160.679993 215.679993
140.679993 165.679993 130.679993
140.679993 165.679993 155.679993
140.679993 165.679993 165.679993
140.679993 170.679993 125.679993
140.679993 170.679993 130.679993
140.679993 170.679993 140.679993
140.679993 170.679993 160.679993
140.679993 170.679993 165.679993
140.679993 175.679993 120.679993
140.679993 175.679993 125.679993
140.679993 175.679993 140.679993
140.679993 180.679993 120.679993
140.679993 180.679993 135.679993
140.679993 180.679993 140.679993
140.679993 185.679993 115.679993
140.679993 185.679993 125.679993
140.679993 190.679993 120.679993
145.679993 70.679993 135.679993
145.679993 75.679993 130.679993
145.679993 75.679993 135.679993
145.679993 75.679993 140.679993
145.679993 75.679993 145.679993
145.679993 75.679993 160.679993
145.679993 80.679993 125.679993
145.679993 80.679993 130.679993
145.679993 80.679993 145.679993
145.679993 80.679993 150.679993
145.679993 80.679993 155.679993
145.679993 85.679993 130.679993
145.679993 85.679993 135.679993
145.679993 85.679993 150.679993
145.679993 85.679993 155.679993
145.679993 85.679993 160.679993
145.679993 90.679993 135.679993
145.679993 90.679993 140.679993
145.679993 90.679993 150.679993
145.679993 90.679993 165.679993
145.679993 95.679993 140.679993
145.679993 95.679993 145.679993
145.679993 95.679993 150.679993
145.679993 95.679993 155.679993
145.679993 95.679993 160.679993
145.679993 95.679993 165.679993
145.679993 95.679993 170.679993
145.679993 95.679993 175.679993
145.679993 100.679993 115.679993
145.679993 100.679993 120.679993
145.679993 100.679993 165.679993
145.679993 100.679993 170.679993
145.679993 100.679993 180.679993
145.679993 105.679993 110.679993
145.679993 105.679993 135.679993
145.679993 105.679993 140.679993
145.679993 105.679993 145.679993
145.679993 105.679993 150.679993
145.679993 105.679993 175.679993
145.679993 110.679993 85.679993
145.679993 110.679993 90.679993
145.679993 110.679993 95.679993
145.679993 110.679993 105.679993
145.679993 110.679993 115.679993
145.679993 110.679993 130.679993
145.679993 110.679993 135.679993
145.679993 110.679993 145.679993
145.679993 110.679993 155.679993
145.679993 110.679993 160.679993
145.679993 110.679993 175.679993
145.679993 110.679993 185.679993
145.679993 115.679993 80.679993
145.679993 115.679993 85.679993
145.679993 115.679993 95.679993
145.679993 115.679993 100.679993
145.679993 115.679993 105.679993
145.679993 115.679993 110.679993
145.679993 115.679993 125.679993
145.679993 115.679993 135.679993
145.679993 115.679993 145.679993
145.679993 115.679993 160.679993
145.679993 115.679993 185.679993
145.679993 120.679993 80.679993
145.679993 120.679993 85.679993
145.679993 120.679993 90.679993
145.679993 120.679993 100.679993
145.679993 120.679993 110.679993
145.679993 120.679993 125.679993
145.679993 120.679993 130.679993
145.679993 120.679993 135.679993
145.679993 120.679993 140.679993
145.679993 120.679993 155.679993
145.679993 120.679993 160.679993
145.679993 120.679993 180.679993
145.679993 120.679993 185.679993
145.679993 120.679993 190.679993
145.679993 125.679993 80.679993
145.679993 125.679993 85.679993
145.679993 125.679993 90.679993
145.679993 125.679993 95.679993
145.679993 125.679993 105.679993
145.679993 125.679993 110.679993
145.679993 125.679993 135.679993
145.679993 125.679993 150.679993
145.679993 125.679993 160.679993
145.679993 125.679993 180.679993
145.679993 125.679993 190.679993
145.679993 130.679993 95.679993
145.679993 130.679993 110.679993
145.679993 130.679993 115.679993
145.679993 130.679993 150.679993
145.679993 130.679993 160.679993
145.679993 130.679993 175.679993
145.679993 130.679993 180.679993
145.679993 130.679993 185.679993
145.679993 135.679993 105.679993
145.679993 135.679993 120.679993
145.679993 135.679993 125.679993
145.679993 135.679993 150.679993
145.679993 135.679993 155.679993
145.679993 135.679993 160.679993
145.679993 135.679993 175.679993
145.679993 135.679993 185.679993
145.679993 135.679993 190.679993
145.679993 140.679993 90.679993
145.679993 140.679993 105.679993
145.679993 140.679993 120.679993
145.679993 140.679993 125.679993
145.679993 140.679993 135.679993
145.679993 140.679993 140.679993
145.679993 140.679993 155.679993
145.679993 140.679993 160.679993
145.679993 140.679993 170.679993
145.679993 140.679993 175.679993
145.679993 140.679993 180.679993
145.679993 140.679993 185.679993
145.679993 140.679993 190.679993
145.679993 145.679993 90.679993
145.679993 145.679993 95.679993
145.679993 145.679993 100.679993
145.679993 145.679993 105.679993
145.679993 145.679993 115.679993
145.679993 145.679993 125.679993
145.679993 145.679993 130.679993
145.679993 145.679993 135.679993
145.679993 145.679993 140.679993
145.679993 145.679993 175.679993
145.679993 145.679993 185.679993
145.679993 150.679993 130.679993
145.679993 150.679993 145.679993
145.679993 150.679993 185.679993
145.679993 150.679993 205.679993
145.679993 150.679993 210.679993
145.679993 155.679993 135.679993
145.679993 155.679993 140.679993
145.679993 155.679993 145.679993
145.679993 155.679993 160.679993
145.679993 155.679993 185.679993
145.679993 155.679993 190.679993
145.679993 160.679993 140.679993
145.679993 160.679993 150.679993
145.679993 160.679993 165.679993
145.679993 165.679993 125.679993
145.679993 170.679993 115.679993
145.679993 170.679993 125.679993
145.679993 170.679993 130.679993
145.679993 170.679993 135.679993
145.679993 170.679993 145.679993
145.679993 170.679993 160.679993
145.679993 175.679993 120.679993
145.679993 175.679993 125.679993
145.679993 175.679993 130.679993
145.679993 175.679993 140.679993
145.679993 175.679993 145.679993
145.679993 175.679993 160.679993
145.679993 175.679993 165.679993
145.679993 180.679993 120.679993
145.679993 180.679993 130.679993
145.679993 180.679993 140.679993
145.679993 180.679993 145.679993
145.679993 185.679993 110.679993
145.679993 185.679993 115.679993
145.679993 185.679993 125.679993
145.679993 185.679993 135.679993
145.679993 190.679993 120.679993
145.679993 190.679993 125.679993
145.679993 190.679993 130.679993
145.679993 195.679993 125.679993
145.679993 200.679993 110.679993
145.679993 205.679993 110.679993
145.679993 210.679993 110.679993
150.679993 75.679993 125.679993
150.679993 75.679993 130.679993
150.679993 75.679993 135.679993
150.679993 75.679993 140.679993
150.679993 75.679993 145.679993
150.679993 75.679993 165.679993
150.679993 80.679993 125.679993
150.679993 80.679993 130.679993
150.679993 80.679993 140.679993
150.679993 80.679993 160.679993
150.679993 80.679993 165.679993
150.679993 85.679993 130.679993
150.679993 85.679993 155.679993
150.679993 85.679993 160.679993
150.679993 85.679993 165.679993
150.679993 90.679993 100.679993
150.679993 90.679993 105.679993
150.679993 90.679993 135.679993
150.679993 90.679993 140.679993
150.679993 90.679993 145.679993
150.679993 90.679993 150.679993
150.679993 90.679993 165.679993
150.679993 90.679993 170.679993
150.679993 95.679993 145.679993
150.679993 95.679993 150.679993
150.679993 95.679993 155.679993
150.679993 95.679993 160.679993
150.679993 95.679993 170.679993
150.679993 95.679993 175.679993
150.679993 100.679993 105.679993
150.679993 100.679993 110.679993
150.679993 100.679993 120.679993
150.679993 100.679993 125.679993
150.679993 100.679993 130.679993
150.679993 100.679993 145.679993
150.679993 100.679993 150.679993
150.679993 100.679993 165.679993
150.679993 100.679993 170.679993
150.679993 100.679993 175.679993
150.679993 105.679993 95.679993
150.679993 105.679993 100.679993
150.679993 105.679993 110.679993
150.679993 105.679993 120.679993
150.679993 105.679993 125.679993
150.679993 105.679993 130.679993
150.679993 105.679993 155.679993
150.679993 105.679993 180.679993
150.679993 110.679993 85.679993
150.679993 110.679993 95.679993
150.679993 110.679993 115.679993
150.679993 110.679993 140.679993
150.679993 110.679993 145.679993
150.679993 110.679993 180.679993
150.679993 115.679993 85.679993
150.679993 115.679993 90.679993
150.679993 115.679993 100.679993
150.679993 115.679993 105.679993
150.679993 115.679993 110.679993
150.679993 115.679993 120.679993
150.679993 115.679993 135.679993
150.679993 115.679993 140.679993
150.679993 115.679993 145.679993
150.679993 115.679993 160.679993
150.679993 120.679993 90.679993
150.679993 120.679993 100.679993
150.679993 120.679993 110.679993
150.679993 120.679993 135.679993
150.679993 120.679993 140.679993
150.679993 120.679993 150.679993
150.679993 125.679993 90.679993
150.679993 125.679993 105.679993
150.679993 125.679993 110.679993
150.679993 125.679993 135.679993
150.679993 125.679993 145.679993
150.679993 130.679993 90.679993
150.679993 130.679993 95.679993
150.679993 130.679993 100.679993
150.679993 130.679993 110.679993
150.679993 130.679993 120.679993
150.679993 130.679993 140.679993
150.679993 130.679993 160.679993
150.679993 130.679993 165.679993
150.679993 130.679993 180.679993
150.679993 130.679993 185.679993
150.679993 135.679993 95.679993
150.679993 135.679993 100.679993
150.679993 135.679993 110.679993
150.679993 135.679993 115.679993
150.679993 135.679993 125.679993
150.679993 135.679993 145.679993
150.679993 135.679993 175.679993
150.679993 135.679993 180.679993
150.679993 140.679993 80.679993
150.679993 140.679993 85.679993
150.679993 140.679993 90.679993
150.679993 140.679993 100.679993
150.679993 140.679993 105.679993
150.679993 140.679993 110.679993
150.679993 140.679993 115.679993
150.679993 140.679993 130.679993
150.679993 140.679993 160.679993
150.679993 140.679993 165.679993
150.679993 140.679993 175.679993
150.679993 140.679993 180.679993
150.679993 140.679993 185.679993
150.679993 145.679993 70.679993
150.679993 145.679993 80.679993
150.679993 145.679993 90.679993
150.679993 145.679993 95.679993
150.679993 145.679993 100.679993
150.679993 145.679993 125.679993
150.679993 145.679993 145.679993
150.679993 145.679993 175.679993
150.679993 145.679993 180.679993
150.679993 145.679993 190.679993
150.679993 150.679993 70.679993
150.679993 150.679993 80.679993
150.679993 150.679993 95.679993
150.679993 150.679993 130.679993
150.679993 150.679993 150.679993
150.679993 150.679993 160.679993
150.679993 150.679993 185.679993
150.679993 150.679993 190.679993
150.679993 155.679993 75.679993
150.679993 155.679993 80.679993
150.679993 155.679993 85.679993
150.679993 155.679993 160.679993
150.679993 155.679993 190.679993
150.679993 160.679993 110.679993
150.679993 160.679993 115.679993
150.679993 160.679993 120.679993
150.679993 160.679993 140.679993
150.679993 160.679993 145.679993
150.679993 160.679993 150.679993
150.679993 165.679993 110.679993
150.679993 165.679993 120.679993
150.679993 165.679993 125.679993
150.679993 165.679993 135.679993
150.679993 165.679993 140.679993
150.679993 165.679993 150.679993
150.679993 165.679993 155.679993
150.679993 170.679993 115.679993
150.679993 170.679993 120.679993
150.679993 170.679993 125.679993
150.679993 170.679993 135.679993
150.679993 170.679993 140.679993
150.679993 170.679993 145.679993
150.679993 175.679993 115.679993
150.679993 175.679993 125.679993
150.679993 175.679993 135.679993
150.679993 175.679993 140.679993
150.679993 175.679993 145.679993
150.679993 180.679993 115.679993
150.679993 180.679993 125.679993
150.679993 180.679993 130.679993
150.679993 180.679993 135.679993
150.679993 180.679993 145.679993
150.679993 180.679993 150.679993
150.679993 185.679993 110.679993
150.679993 185.679993 115.679993
150.679993 185.679993 135.679993
150.679993 185.679993 140.679993
150.679993 190.679993 110.679993
150.679993 190.679993 120.679993
150.679993 190.679993 125.679993
150.679993 190.679993 130.679993
150.679993 195.679993 115.679993
150.679993 195.679993 120.679993
150.679993 195.679993 125.679993
150.679993 200.679993 105.679993
150.679993 200.679993 110.679993
150.679993 200.679993 115.679993
150.679993 200.679993 120.679993
150.679993 205.679993 105.679993
150.679993 205.679993 110.679993
150.679993 205.679993 115.679993
150.679993 210.679993 110.679993
155.679993 70.679993 130.679993
155.679993 70.679993 135.679993
155.679993 70.679993 145.679993
155.679993 75.679993 145.679993
155.679993 75.679993 150.679993
155.679993 75.679993 155.679993
155.679993 75.679993 160.679993
155.679993 80.679993 130.679993
155.679993 80.679993 135.679993
155.679993 80.679993 140.679993
155.679993 80.679993 145.679993
155.679993 80.679993 150.679993
155.679993 80.679993 155.679993
155.679993 80.679993 160.679993
155.679993 80.679993 165.679993
155.679993 85.679993 130.679993
