ply
format ascii 1.0
comment Created by Open3D
element vertex 1470
property float x
property float y
property float z
end_header
167.799994 172.799994 167.799994
167.799994 172.799994 172.799994
167.799994 172.799994 177.799994
167.799994 177.799994 162.799994
167.799994 177.799994 167.799994
167.799994 177.799994 172.799994
167.799994 182.799994 172.799994
172.799994 57.799994 132.799994
172.799994 57.799994 157.799994
172.799994 57.799994 162.799994
172.799994 62.799994 127.799994
172.799994 62.799994 132.799994
172.799994 62.799994 137.799994
172.799994 62.799994 157.799994
172.799994 67.799994 127.799994
172.799994 67.799994 132.799994
172.799994 67.799994 137.799994
172.799994 67.799994 142.799994
172.799994 67.799994 147.799994
172.799994 72.799994 137.799994
172.799994 72.799994 142.799994
172.799994 72.799994 147.799994
172.799994 72.799994 152.799994
172.799994 72.799994 157.799994
172.799994 72.799994 162.799994
172.799994 72.799994 167.799994
172.799994 72.799994 172.799994
172.799994 72.799994 177.799994
172.799994 77.799994 107.799994
172.799994 77.799994 112.799994
172.799994 77.799994 117.799994
172.799994 77.799994 122.799994
172.799994 77.799994 137.799994
172.799994 77.799994 157.799994
172.799994 77.799994 162.799994
172.799994 77.799994 167.799994
172.799994 77.799994 172.799994
172.799994 77.799994 177.799994
172.799994 77.799994 182.799994
172.799994 77.799994 187.799994
172.799994 82.799994 97.799994
172.799994 82.799994 102.799994
172.799994 82.799994 107.799994
172.799994 82.799994 112.799994
172.799994 82.799994 137.799994
172.799994 82.799994 142.799994
172.799994 82.799994 147.799994
172.799994 82.799994 152.799994
172.799994 82.799994 157.799994
172.799994 82.799994 162.799994
172.799994 82.799994 167.799994
172.799994 82.799994 172.799994
172.799994 82.799994 187.799994
172.799994 87.799994 97.799994
172.799994 87.799994 102.799994
172.799994 87.799994 112.799994
172.799994 87.799994 117.799994
172.799994 87.799994 122.799994
172.799994 87.799994 127.799994
172.799994 87.799994 132.799994
172.799994 87.799994 137.799994
172.799994 87.799994 147.799994
172.799994 87.799994 152.799994
172.799994 87.799994 157.799994
172.799994 87.799994 162.799994
172.799994 87.799994 167.799994
172.799994 87.799994 172.799994
172.799994 87.799994 177.799994
172.799994 87.799994 182.799994
172.799994 87.799994 187.799994
172.799994 92.799994 102.799994
172.799994 92.799994 107.799994
172.799994 92.799994 112.799994
172.799994 92.799994 117.799994
172.799994 92.799994 122.799994
172.799994 92.799994 127.799994
172.799994 92.799994 132.799994
172.799994 92.799994 137.799994
172.799994 92.799994 142.799994
172.799994 92.799994 147.799994
172.799994 92.799994 157.799994
172.799994 92.799994 162.799994
172.799994 92.799994 167.799994
172.799994 92.799994 172.799994
172.799994 92.799994 177.799994
172.799994 92.799994 182.799994
172.799994 92.799994 187.799994
172.799994 97.799994 102.799994
172.799994 97.799994 117.799994
172.799994 97.799994 122.799994
172.799994 97.799994 127.799994
172.799994 97.799994 137.799994
172.799994 97.799994 142.799994
172.799994 97.799994 167.799994
172.799994 97.799994 172.799994
172.799994 97.799994 182.799994
172.799994 97.799994 187.799994
172.799994 97.799994 192.799994
172.799994 102.799994 97.799994
172.799994 102.799994 102.799994
172.799994 102.799994 107.799994
172.799994 102.799994 112.799994
172.799994 102.799994 117.799994
172.799994 102.799994 127.799994
172.799994 102.799994 137.799994
172.799994 102.799994 142.799994
172.799994 102.799994 157.799994
172.799994 102.799994 172.799994
172.799994 102.799994 182.799994
172.799994 102.799994 187.799994
172.799994 102.799994 192.799994
172.799994 107.799994 97.799994
172.799994 107.799994 102.799994
172.799994 107.799994 107.799994
172.799994 107.799994 112.799994
172.799994 107.799994 117.799994
172.799994 107.799994 122.799994
172.799994 107.799994 132.799994
172.799994 107.799994 137.799994
172.799994 107.799994 142.799994
172.799994 107.799994 157.799994
172.799994 107.799994 162.799994
172.799994 107.799994 167.799994
172.799994 107.799994 172.799994
172.799994 107.799994 177.799994
172.799994 107.799994 182.799994
172.799994 107.799994 187.799994
172.799994 112.799994 97.799994
172.799994 112.799994 102.799994
172.799994 112.799994 107.799994
172.799994 112.799994 112.799994
172.799994 112.799994 122.799994
172.799994 112.799994 127.799994
172.799994 112.799994 132.799994
172.799994 112.799994 137.799994
172.799994 112.799994 157.799994
172.799994 112.799994 162.799994
172.799994 112.799994 167.799994
172.799994 112.799994 172.799994
172.799994 112.799994 177.799994
172.799994 112.799994 182.799994
172.799994 112.799994 187.799994
172.799994 112.799994 217.799994
172.799994 112.799994 222.799994
172.799994 117.799994 92.799994
172.799994 117.799994 97.799994
172.799994 117.799994 102.799994
172.799994 117.799994 107.799994
172.799994 117.799994 112.799994
172.799994 117.799994 117.799994
172.799994 117.799994 122.799994
172.799994 117.799994 127.799994
172.799994 117.799994 132.799994
172.799994 117.799994 137.799994
172.799994 117.799994 157.799994
172.799994 117.799994 162.799994
172.799994 117.799994 167.799994
172.799994 117.799994 172.799994
172.799994 117.799994 177.799994
172.799994 117.799994 182.799994
172.799994 117.799994 212.799994
172.799994 117.799994 217.799994
172.799994 117.799994 222.799994
172.799994 117.799994 227.799994
172.799994 122.799994 102.799994
172.799994 122.799994 107.799994
172.799994 122.799994 112.799994
172.799994 122.799994 117.799994
172.799994 122.799994 122.799994
172.799994 122.799994 127.799994
172.799994 122.799994 172.799994
172.799994 122.799994 182.799994
172.799994 122.799994 192.799994
172.799994 122.799994 197.799994
172.799994 122.799994 202.799994
172.799994 122.799994 207.799994
172.799994 122.799994 212.799994
172.799994 122.799994 217.799994
172.799994 122.799994 222.799994
172.799994 122.799994 227.799994
172.799994 127.799994 107.799994
172.799994 127.799994 112.799994
172.799994 127.799994 117.799994
172.799994 127.799994 122.799994
172.799994 127.799994 127.799994
172.799994 127.799994 157.799994
172.799994 127.799994 162.799994
172.799994 127.799994 167.799994
172.799994 127.799994 172.799994
172.799994 127.799994 177.799994
172.799994 127.799994 197.799994
172.799994 127.799994 202.799994
172.799994 127.799994 207.799994
172.799994 127.799994 212.799994
172.799994 127.799994 217.799994
172.799994 127.799994 222.799994
172.799994 127.799994 227.799994
172.799994 132.799994 107.799994
172.799994 132.799994 112.799994
172.799994 132.799994 142.799994
172.799994 132.799994 147.799994
172.799994 132.799994 152.799994
172.799994 132.799994 157.799994
172.799994 132.799994 162.799994
172.799994 132.799994 167.799994
172.799994 132.799994 172.799994
172.799994 132.799994 177.799994
172.799994 132.799994 212.799994
172.799994 132.799994 217.799994
172.799994 132.799994 222.799994
172.799994 132.799994 227.799994
172.799994 137.799994 107.799994
172.799994 137.799994 112.799994
172.799994 137.799994 117.799994
172.799994 137.799994 127.799994
172.799994 137.799994 147.799994
172.799994 137.799994 152.799994
172.799994 137.799994 157.799994
172.799994 137.799994 162.799994
172.799994 137.799994 167.799994
172.799994 137.799994 172.799994
172.799994 137.799994 177.799994
172.799994 137.799994 212.799994
172.799994 137.799994 217.799994
172.799994 137.799994 222.799994
172.799994 137.799994 227.799994
172.799994 142.799994 82.799994
172.799994 142.799994 87.799994
172.799994 142.799994 92.799994
172.799994 142.799994 97.799994
172.799994 142.799994 102.799994
172.799994 142.799994 107.799994
172.799994 142.799994 112.799994
172.799994 142.799994 117.799994
172.799994 142.799994 122.799994
172.799994 142.799994 137.799994
172.799994 142.799994 142.799994
172.799994 142.799994 147.799994
172.799994 142.799994 152.799994
172.799994 142.799994 157.799994
172.799994 142.799994 162.799994
172.799994 142.799994 167.799994
172.799994 142.799994 172.799994
172.799994 142.799994 222.799994
172.799994 147.799994 77.799994
172.799994 147.799994 82.799994
172.799994 147.799994 87.799994
172.799994 147.799994 92.799994
172.799994 147.799994 97.799994
172.799994 147.799994 102.799994
172.799994 147.799994 107.799994
172.799994 147.799994 112.799994
172.799994 147.799994 117.799994
172.799994 147.799994 122.799994
172.799994 147.799994 127.799994
172.799994 147.799994 132.799994
172.799994 147.799994 137.799994
172.799994 147.799994 142.799994
172.799994 147.799994 147.799994
172.799994 147.799994 152.799994
172.799994 147.799994 157.799994
172.799994 147.799994 162.799994
172.799994 147.799994 167.799994
172.799994 147.799994 172.799994
172.799994 152.799994 82.799994
172.799994 152.799994 87.799994
172.799994 152.799994 92.799994
172.799994 152.799994 97.799994
172.799994 152.799994 102.799994
172.799994 152.799994 107.799994
172.799994 152.799994 112.799994
172.799994 152.799994 117.799994
172.799994 152.799994 122.799994
172.799994 152.799994 127.799994
172.799994 152.799994 132.799994
172.799994 152.799994 137.799994
172.799994 152.799994 142.799994
172.799994 152.799994 152.799994
172.799994 152.799994 157.799994
172.799994 152.799994 162.799994
172.799994 152.799994 167.799994
172.799994 152.799994 172.799994
172.799994 152.799994 177.799994
172.799994 157.799994 92.799994
172.799994 157.799994 102.799994
172.799994 157.799994 107.799994
172.799994 157.799994 112.799994
172.799994 157.799994 117.799994
172.799994 157.799994 122.799994
172.799994 157.799994 127.799994
172.799994 157.799994 132.799994
172.799994 157.799994 137.799994
172.799994 157.799994 142.799994
172.799994 157.799994 152.799994
172.799994 157.799994 157.799994
172.799994 157.799994 162.799994
172.799994 157.799994 172.799994
172.799994 157.799994 177.799994
172.799994 162.799994 112.799994
172.799994 162.799994 117.799994
172.799994 162.799994 122.799994
172.799994 162.799994 127.799994
172.799994 162.799994 132.799994
172.799994 162.799994 152.799994
172.799994 162.799994 157.799994
172.799994 162.799994 162.799994
172.799994 162.799994 167.799994
172.799994 162.799994 172.799994
172.799994 162.799994 177.799994
172.799994 162.799994 182.799994
172.799994 167.799994 147.799994
172.799994 167.799994 152.799994
172.799994 167.799994 157.799994
172.799994 167.799994 162.799994
172.799994 167.799994 167.799994
172.799994 167.799994 172.799994
172.799994 167.799994 177.799994
172.799994 167.799994 182.799994
172.799994 172.799994 152.799994
172.799994 172.799994 157.799994
172.799994 172.799994 162.799994
172.799994 172.799994 167.799994
172.799994 172.799994 172.799994
172.799994 172.799994 177.799994
172.799994 177.799994 162.799994
172.799994 177.799994 167.799994
172.799994 177.799994 172.799994
172.799994 177.799994 177.799994
172.799994 182.799994 167.799994
172.799994 182.799994 172.799994
177.799994 57.799994 132.799994
177.799994 57.799994 137.799994
177.799994 57.799994 157.799994
177.799994 57.799994 162.799994
177.799994 62.799994 122.799994
177.799994 62.799994 127.799994
177.799994 62.799994 132.799994
177.799994 62.799994 137.799994
177.799994 62.799994 142.799994
177.799994 62.799994 147.799994
177.799994 62.799994 152.799994
177.799994 62.799994 157.799994
177.799994 62.799994 162.799994
177.799994 67.799994 127.799994
177.799994 67.799994 132.799994
177.799994 67.799994 142.799994
177.799994 67.799994 147.799994
177.799994 67.799994 152.799994
177.799994 67.799994 157.799994
177.799994 67.799994 162.799994
177.799994 72.799994 137.799994
177.799994 72.799994 142.799994
177.799994 72.799994 147.799994
177.799994 72.799994 152.799994
177.799994 72.799994 157.799994
177.799994 72.799994 162.799994
177.799994 72.799994 167.799994
177.799994 72.799994 172.799994
177.799994 77.799994 102.799994
177.799994 77.799994 137.799994
177.799994 77.799994 142.799994
177.799994 77.799994 147.799994
177.799994 77.799994 152.799994
177.799994 77.799994 157.799994
177.799994 77.799994 162.799994
177.799994 77.799994 167.799994
177.799994 77.799994 172.799994
177.799994 77.799994 177.799994
177.799994 77.799994 182.799994
177.799994 82.799994 97.799994
177.799994 82.799994 102.799994
177.799994 82.799994 107.799994
177.799994 82.799994 112.799994
177.799994 82.799994 117.799994
177.799994 82.799994 137.799994
177.799994 82.799994 142.799994
177.799994 82.799994 147.799994
177.799994 82.799994 157.799994
177.799994 82.799994 162.799994
177.799994 82.799994 167.799994
177.799994 82.799994 172.799994
177.799994 82.799994 177.799994
177.799994 82.799994 182.799994
177.799994 87.799994 97.799994
177.799994 87.799994 102.799994
177.799994 87.799994 117.799994
177.799994 87.799994 122.799994
177.799994 87.799994 127.799994
177.799994 87.799994 147.799994
177.799994 87.799994 157.799994
177.799994 87.799994 162.799994
177.799994 87.799994 172.799994
177.799994 87.799994 182.799994
177.799994 87.799994 187.799994
177.799994 92.799994 102.799994
177.799994 92.799994 107.799994
177.799994 92.799994 112.799994
177.799994 92.799994 117.799994
177.799994 92.799994 122.799994
177.799994 92.799994 127.799994
177.799994 92.799994 132.799994
177.799994 92.799994 137.799994
177.799994 92.799994 142.799994
177.799994 92.799994 157.799994
177.799994 92.799994 167.799994
177.799994 92.799994 172.799994
177.799994 92.799994 177.799994
177.799994 92.799994 182.799994
177.799994 92.799994 187.799994
177.799994 97.799994 97.799994
177.799994 97.799994 102.799994
177.799994 97.799994 107.799994
177.799994 97.799994 117.799994
177.799994 97.799994 122.799994
177.799994 97.799994 127.799994
177.799994 97.799994 137.799994
177.799994 97.799994 142.799994
177.799994 97.799994 147.799994
177.799994 97.799994 172.799994
177.799994 97.799994 182.799994
177.799994 97.799994 187.799994
177.799994 97.799994 192.799994
177.799994 102.799994 92.799994
177.799994 102.799994 97.799994
177.799994 102.799994 102.799994
177.799994 102.799994 107.799994
177.799994 102.799994 112.799994
177.799994 102.799994 117.799994
177.799994 102.799994 122.799994
177.799994 102.799994 127.799994
177.799994 102.799994 132.799994
177.799994 102.799994 137.799994
177.799994 102.799994 142.799994
177.799994 102.799994 147.799994
177.799994 102.799994 157.799994
177.799994 102.799994 162.799994
177.799994 102.799994 172.799994
177.799994 102.799994 177.799994
177.799994 102.799994 182.799994
177.799994 102.799994 187.799994
177.799994 102.799994 192.799994
177.799994 107.799994 92.799994
177.799994 107.799994 97.799994
177.799994 107.799994 102.799994
177.799994 107.799994 107.799994
177.799994 107.799994 112.799994
177.799994 107.799994 117.799994
177.799994 107.799994 132.799994
177.799994 107.799994 137.799994
177.799994 107.799994 142.799994
177.799994 107.799994 147.799994
177.799994 107.799994 157.799994
177.799994 107.799994 162.799994
177.799994 107.799994 172.799994
177.799994 107.799994 182.799994
177.799994 107.799994 187.799994
177.799994 112.799994 92.799994
177.799994 112.799994 112.799994
177.799994 112.799994 117.799994
177.799994 112.799994 122.799994
177.799994 112.799994 137.799994
177.799994 112.799994 147.799994
177.799994 112.799994 162.799994
177.799994 112.799994 167.799994
177.799994 112.799994 172.799994
177.799994 112.799994 177.799994
177.799994 112.799994 182.799994
177.799994 112.799994 187.799994
177.799994 112.799994 192.799994
177.799994 117.799994 72.799994
177.799994 117.799994 77.799994
177.799994 117.799994 82.799994
177.799994 117.799994 92.799994
177.799994 117.799994 97.799994
177.799994 117.799994 107.799994
177.799994 117.799994 112.799994
177.799994 117.799994 122.799994
177.799994 117.799994 132.799994
177.799994 117.799994 152.799994
177.799994 117.799994 157.799994
177.799994 117.799994 162.799994
177.799994 117.799994 167.799994
177.799994 117.799994 172.799994
177.799994 117.799994 177.799994
177.799994 117.799994 182.799994
177.799994 117.799994 187.799994
177.799994 117.799994 217.799994
177.799994 122.799994 72.799994
177.799994 122.799994 77.799994
177.799994 122.799994 82.799994
177.799994 122.799994 87.799994
177.799994 122.799994 92.799994
177.799994 122.799994 112.799994
177.799994 122.799994 117.799994
177.799994 122.799994 122.799994
177.799994 122.799994 157.799994
177.799994 122.799994 162.799994
177.799994 122.799994 172.799994
177.799994 122.799994 177.799994
177.799994 122.799994 182.799994
177.799994 122.799994 187.799994
177.799994 122.799994 192.799994
177.799994 122.799994 207.799994
177.799994 122.799994 212.799994
177.799994 122.799994 217.799994
177.799994 122.799994 222.799994
177.799994 122.799994 227.799994
177.799994 127.799994 77.799994
177.799994 127.799994 82.799994
177.799994 127.799994 92.799994
177.799994 127.799994 102.799994
177.799994 127.799994 107.799994
177.799994 127.799994 112.799994
177.799994 127.799994 117.799994
177.799994 127.799994 152.799994
177.799994 127.799994 157.799994
177.799994 127.799994 162.799994
177.799994 127.799994 167.799994
177.799994 127.799994 172.799994
177.799994 127.799994 177.799994
177.799994 127.799994 192.799994
177.799994 127.799994 207.799994
177.799994 127.799994 212.799994
177.799994 127.799994 217.799994
177.799994 127.799994 222.799994
177.799994 127.799994 227.799994
177.799994 132.799994 82.799994
177.799994 132.799994 87.799994
177.799994 132.799994 117.799994
177.799994 132.799994 122.799994
177.799994 132.799994 147.799994
177.799994 132.799994 152.799994
177.799994 132.799994 157.799994
177.799994 132.799994 162.799994
177.799994 132.799994 167.799994
177.799994 132.799994 172.799994
177.799994 132.799994 177.799994
177.799994 132.799994 217.799994
177.799994 132.799994 222.799994
177.799994 132.799994 227.799994
177.799994 137.799994 87.799994
177.799994 137.799994 112.799994
177.799994 137.799994 117.799994
177.799994 137.799994 122.799994
177.799994 137.799994 147.799994
177.799994 137.799994 152.799994
177.799994 137.799994 157.799994
177.799994 137.799994 162.799994
177.799994 137.799994 167.799994
177.799994 137.799994 172.799994
177.799994 137.799994 217.799994
177.799994 137.799994 222.799994
177.799994 137.799994 227.799994
177.799994 142.799994 82.799994
177.799994 142.799994 87.799994
177.799994 142.799994 92.799994
177.799994 142.799994 97.799994
177.799994 142.799994 122.799994
177.799994 142.799994 127.799994
177.799994 142.799994 142.799994
177.799994 142.799994 147.799994
177.799994 142.799994 152.799994
177.799994 142.799994 157.799994
177.799994 142.799994 162.799994
177.799994 142.799994 167.799994
177.799994 147.799994 77.799994
177.799994 147.799994 82.799994
177.799994 147.799994 87.799994
177.799994 147.799994 92.799994
177.799994 147.799994 97.799994
177.799994 147.799994 102.799994
177.799994 147.799994 107.799994
177.799994 147.799994 112.799994
177.799994 147.799994 117.799994
177.799994 147.799994 122.799994
177.799994 147.799994 127.799994
177.799994 147.799994 142.799994
177.799994 147.799994 147.799994
177.799994 147.799994 152.799994
177.799994 147.799994 157.799994
177.799994 147.799994 162.799994
177.799994 147.799994 177.799994
177.799994 152.799994 77.799994
177.799994 152.799994 82.799994
177.799994 152.799994 87.799994
177.799994 152.799994 92.799994
177.799994 152.799994 97.799994
177.799994 152.799994 102.799994
177.799994 152.799994 107.799994
177.799994 152.799994 112.799994
177.799994 152.799994 117.799994
177.799994 152.799994 122.799994
177.799994 152.799994 127.799994
177.799994 152.799994 137.799994
177.799994 152.799994 142.799994
177.799994 152.799994 152.799994
177.799994 152.799994 157.799994
177.799994 152.799994 162.799994
177.799994 152.799994 172.799994
177.799994 152.799994 177.799994
177.799994 157.799994 87.799994
177.799994 157.799994 92.799994
177.799994 157.799994 102.799994
177.799994 157.799994 107.799994
177.799994 157.799994 112.799994
177.799994 157.799994 127.799994
177.799994 157.799994 137.799994
177.799994 157.799994 142.799994
177.799994 157.799994 147.799994
177.799994 157.799994 157.799994
177.799994 157.799994 162.799994
177.799994 157.799994 167.799994
177.799994 157.799994 172.799994
177.799994 157.799994 177.799994
177.799994 162.799994 117.799994
177.799994 162.799994 127.799994
177.799994 162.799994 132.799994
177.799994 162.799994 137.799994
177.799994 162.799994 142.799994
177.799994 162.799994 147.799994
177.799994 162.799994 162.799994
177.799994 162.799994 167.799994
177.799994 162.799994 172.799994
177.799994 162.799994 177.799994
177.799994 162.799994 182.799994
177.799994 167.799994 132.799994
177.799994 167.799994 137.799994
177.799994 167.799994 142.799994
177.799994 167.799994 147.799994
177.799994 167.799994 162.799994
177.799994 167.799994 167.799994
177.799994 167.799994 172.799994
177.799994 167.799994 177.799994
177.799994 172.799994 132.799994
177.799994 172.799994 137.799994
177.799994 172.799994 142.799994
177.799994 172.799994 157.799994
177.799994 172.799994 162.799994
177.799994 172.799994 167.799994
177.799994 172.799994 172.799994
177.799994 177.799994 137.799994
177.799994 177.799994 142.799994
177.799994 177.799994 167.799994
177.799994 177.799994 172.799994
177.799994 177.799994 177.799994
177.799994 182.799994 172.799994
177.799994 182.799994 177.799994
182.799994 52.799994 127.799994
182.799994 57.799994 127.799994
182.799994 57.799994 132.799994
182.799994 57.799994 137.799994
182.799994 57.799994 142.799994
182.799994 57.799994 147.799994
182.799994 57.799994 152.799994
182.799994 57.799994 157.799994
182.799994 57.799994 162.799994
182.799994 62.799994 117.799994
182.799994 62.799994 122.799994
182.799994 62.799994 127.799994
182.799994 62.799994 132.799994
182.799994 62.799994 137.799994
182.799994 62.799994 142.799994
182.799994 62.799994 147.799994
182.799994 62.799994 152.799994
182.799994 62.799994 157.799994
182.799994 62.799994 162.799994
182.799994 62.799994 167.799994
182.799994 67.799994 122.799994
182.799994 67.799994 127.799994
182.799994 67.799994 132.799994
182.799994 67.799994 147.799994
182.799994 67.799994 152.799994
182.799994 67.799994 157.799994
182.799994 67.799994 162.799994
182.799994 67.799994 167.799994
182.799994 72.799994 132.799994
182.799994 72.799994 137.799994
182.799994 72.799994 142.799994
182.799994 72.799994 147.799994
182.799994 72.799994 152.799994
182.799994 72.799994 167.799994
182.799994 72.799994 172.799994
182.799994 77.799994 102.799994
182.799994 77.799994 107.799994
182.799994 77.799994 137.799994
182.799994 77.799994 142.799994
182.799994 77.799994 147.799994
182.799994 77.799994 152.799994
182.799994 77.799994 157.799994
182.799994 77.799994 162.799994
182.799994 77.799994 167.799994
182.799994 77.799994 172.799994
182.799994 82.799994 102.799994
182.799994 82.799994 107.799994
182.799994 82.799994 137.799994
182.799994 82.799994 142.799994
182.799994 82.799994 147.799994
182.799994 82.799994 162.799994
182.799994 82.799994 167.799994
182.799994 82.799994 172.799994
182.799994 82.799994 177.799994
182.799994 82.799994 182.799994
182.799994 87.799994 112.799994
182.799994 87.799994 117.799994
182.799994 87.799994 122.799994
182.799994 87.799994 127.799994
182.799994 87.799994 132.799994
182.799994 87.799994 147.799994
182.799994 87.799994 152.799994
182.799994 87.799994 157.799994
182.799994 87.799994 182.799994
182.799994 87.799994 187.799994
182.799994 92.799994 107.799994
182.799994 92.799994 112.799994
182.799994 92.799994 117.799994
182.799994 92.799994 122.799994
182.799994 92.799994 127.799994
182.799994 92.799994 132.799994
182.799994 92.799994 137.799994
182.799994 92.799994 142.799994
182.799994 92.799994 157.799994
182.799994 92.799994 172.799994
182.799994 92.799994 177.799994
182.799994 92.799994 182.799994
182.799994 92.799994 187.799994
182.799994 97.799994 97.799994
182.799994 97.799994 102.799994
182.799994 97.799994 107.799994
182.799994 97.799994 117.799994
182.799994 97.799994 122.799994
182.799994 97.799994 127.799994
182.799994 97.799994 137.799994
182.799994 97.799994 147.799994
182.799994 97.799994 157.799994
182.799994 97.799994 162.799994
182.799994 97.799994 172.799994
182.799994 97.799994 182.799994
182.799994 97.799994 187.799994
182.799994 97.799994 192.799994
182.799994 102.799994 87.799994
182.799994 102.799994 92.799994
182.799994 102.799994 97.799994
182.799994 102.799994 102.799994
182.799994 102.799994 107.799994
182.799994 102.799994 112.799994
182.799994 102.799994 117.799994
182.799994 102.799994 122.799994
182.799994 102.799994 127.799994
182.799994 102.799994 137.799994
182.799994 102.799994 142.799994
182.799994 102.799994 147.799994
182.799994 102.799994 157.799994
182.799994 102.799994 162.799994
182.799994 102.799994 167.799994
182.799994 102.799994 172.799994
182.799994 102.799994 182.799994
182.799994 102.799994 187.799994
182.799994 102.799994 192.799994
182.799994 107.799994 87.799994
182.799994 107.799994 92.799994
182.799994 107.799994 97.799994
182.799994 107.799994 102.799994
182.799994 107.799994 107.799994
182.799994 107.799994 112.799994
182.799994 107.799994 117.799994
182.799994 107.799994 122.799994
182.799994 107.799994 127.799994
182.799994 107.799994 132.799994
182.799994 107.799994 137.799994
182.799994 107.799994 147.799994
182.799994 107.799994 152.799994
182.799994 107.799994 162.799994
182.799994 107.799994 167.799994
182.799994 107.799994 172.799994
182.799994 107.799994 177.799994
182.799994 107.799994 182.799994
182.799994 107.799994 187.799994
182.799994 112.799994 87.799994
182.799994 112.799994 92.799994
182.799994 112.799994 97.799994
182.799994 112.799994 102.799994
182.799994 112.799994 107.799994
182.799994 112.799994 122.799994
182.799994 112.799994 127.799994
182.799994 112.799994 132.799994
182.799994 112.799994 142.799994
182.799994 112.799994 147.799994
182.799994 112.799994 152.799994
182.799994 112.799994 157.799994
182.799994 112.799994 162.799994
182.799994 112.799994 167.799994
182.799994 112.799994 172.799994
182.799994 112.799994 177.799994
182.799994 112.799994 182.799994
182.799994 112.799994 187.799994
182.799994 112.799994 192.799994
182.799994 117.799994 82.799994
182.799994 117.799994 87.799994
182.799994 117.799994 92.799994
182.799994 117.799994 97.799994
182.799994 117.799994 102.799994
182.799994 117.799994 107.799994
182.799994 117.799994 112.799994
182.799994 117.799994 122.799994
182.799994 117.799994 127.799994
182.799994 117.799994 157.799994
182.799994 117.799994 162.799994
182.799994 117.799994 172.799994
182.799994 117.799994 177.799994
182.799994 117.799994 187.799994
182.799994 117.799994 192.799994
182.799994 122.799994 77.799994
182.799994 122.799994 82.799994
182.799994 122.799994 87.799994
182.799994 122.799994 92.799994
182.799994 122.799994 102.799994
182.799994 122.799994 107.799994
182.799994 122.799994 112.799994
182.799994 122.799994 117.799994
182.799994 122.799994 122.799994
182.799994 122.799994 157.799994
182.799994 122.799994 167.799994
182.799994 122.799994 172.799994
182.799994 122.799994 177.799994
182.799994 122.799994 182.799994
182.799994 122.799994 187.799994
182.799994 122.799994 192.799994
182.799994 122.799994 197.799994
182.799994 127.799994 72.799994
182.799994 127.799994 77.799994
182.799994 127.799994 82.799994
182.799994 127.799994 87.799994
182.799994 127.799994 92.799994
182.799994 127.799994 97.799994
182.799994 127.799994 102.799994
182.799994 127.799994 107.799994
182.799994 127.799994 157.799994
182.799994 127.799994 162.799994
182.799994 127.799994 167.799994
182.799994 127.799994 172.799994
182.799994 127.799994 182.799994
182.799994 127.799994 192.799994
182.799994 127.799994 197.799994
182.799994 127.799994 217.799994
182.799994 127.799994 222.799994
182.799994 127.799994 227.799994
182.799994 132.799994 77.799994
182.799994 132.799994 82.799994
182.799994 132.799994 87.799994
182.799994 132.799994 92.799994
182.799994 132.799994 97.799994
182.799994 132.799994 107.799994
182.799994 132.799994 112.799994
182.799994 132.799994 117.799994
182.799994 132.799994 152.799994
182.799994 132.799994 157.799994
182.799994 132.799994 162.799994
182.799994 132.799994 167.799994
182.799994 132.799994 172.799994
182.799994 132.799994 197.799994
182.799994 137.799994 87.799994
182.799994 137.799994 92.799994
182.799994 137.799994 122.799994
182.799994 137.799994 142.799994
182.799994 137.799994 147.799994
182.799994 137.799994 152.799994
182.799994 137.799994 157.799994
182.799994 137.799994 162.799994
182.799994 137.799994 167.799994
182.799994 137.799994 172.799994
182.799994 142.799994 87.799994
182.799994 142.799994 117.799994
182.799994 142.799994 122.799994
182.799994 142.799994 147.799994
182.799994 142.799994 157.799994
182.799994 142.799994 162.799994
182.799994 142.799994 167.799994
182.799994 142.799994 172.799994
182.799994 147.799994 82.799994
182.799994 147.799994 87.799994
182.799994 147.799994 92.799994
182.799994 147.799994 97.799994
182.799994 147.799994 102.799994
182.799994 147.799994 117.799994
182.799994 147.799994 122.799994
182.799994 147.799994 147.799994
182.799994 147.799994 152.799994
182.799994 147.799994 157.799994
182.799994 147.799994 162.799994
182.799994 147.799994 167.799994
182.799994 152.799994 82.799994
182.799994 152.799994 87.799994
182.799994 152.799994 92.799994
182.799994 152.799994 97.799994
182.799994 152.799994 102.799994
182.799994 152.799994 107.799994
182.799994 152.799994 112.799994
182.799994 152.799994 117.799994
182.799994 152.799994 137.799994
182.799994 152.799994 142.799994
182.799994 152.799994 147.799994
182.799994 152.799994 162.799994
182.799994 152.799994 167.799994
182.799994 152.799994 177.799994
182.799994 157.799994 87.799994
182.799994 157.799994 92.799994
182.799994 157.799994 97.799994
182.799994 157.799994 102.799994
182.799994 157.799994 147.799994
182.799994 157.799994 152.799994
182.799994 157.799994 162.799994
182.799994 157.799994 167.799994
182.799994 157.799994 172.799994
182.799994 157.799994 177.799994
182.799994 162.799994 92.799994
182.799994 162.799994 132.799994
182.799994 162.799994 137.799994
182.799994 162.799994 142.799994
182.799994 162.799994 147.799994
182.799994 162.799994 152.799994
182.799994 162.799994 157.799994
182.799994 162.799994 167.799994
182.799994 162.799994 172.799994
182.799994 162.799994 177.799994
182.799994 167.799994 132.799994
182.799994 167.799994 137.799994
182.799994 167.799994 142.799994
182.799994 167.799994 147.799994
182.799994 167.799994 152.799994
182.799994 167.799994 172.799994
182.799994 172.799994 132.799994
182.799994 172.799994 137.799994
182.799994 172.799994 142.799994
182.799994 172.799994 147.799994
182.799994 177.799994 137.799994
182.799994 177.799994 142.799994
182.799994 177.799994 147.799994
187.799994 52.799994 127.799994
187.799994 57.799994 117.799994
187.799994 57.799994 122.799994
187.799994 57.799994 127.799994
187.799994 57.799994 132.799994
187.799994 57.799994 137.799994
187.799994 57.799994 142.799994
187.799994 57.799994 147.799994
187.799994 57.799994 152.799994
187.799994 57.799994 157.799994
187.799994 57.799994 162.799994
187.799994 62.799994 117.799994
187.799994 62.799994 122.799994
187.799994 62.799994 127.799994
187.799994 62.799994 132.799994
187.799994 62.799994 137.799994
187.799994 62.799994 142.799994
187.799994 62.799994 147.799994
187.799994 62.799994 157.799994
187.799994 62.799994 162.799994
187.799994 62.799994 167.799994
187.799994 67.799994 122.799994
187.799994 67.799994 127.799994
187.799994 67.799994 132.799994
187.799994 67.799994 162.799994
187.799994 67.799994 167.799994
187.799994 72.799994 132.799994
187.799994 72.799994 137.799994
187.799994 72.799994 142.799994
187.799994 72.799994 147.799994
187.799994 72.799994 152.799994
187.799994 72.799994 157.799994
187.799994 72.799994 162.799994
187.799994 72.799994 167.799994
187.799994 72.799994 172.799994
187.799994 77.799994 102.799994
187.799994 77.799994 107.799994
187.799994 77.799994 112.799994
187.799994 77.799994 137.799994
187.799994 77.799994 142.799994
187.799994 77.799994 147.799994
187.799994 77.799994 152.799994
187.799994 77.799994 157.799994
187.799994 77.799994 162.799994
187.799994 77.799994 167.799994
187.799994 77.799994 172.799994
187.799994 77.799994 177.799994
187.799994 82.799994 102.799994
187.799994 82.799994 107.799994
187.799994 82.799994 112.799994
187.799994 82.799994 117.799994
187.799994 82.799994 142.799994
187.799994 82.799994 147.799994
187.799994 82.799994 162.799994
187.799994 82.799994 167.799994
187.799994 82.799994 172.799994
187.799994 82.799994 182.799994
187.799994 87.799994 112.799994
187.799994 87.799994 117.799994
187.799994 87.799994 127.799994
187.799994 87.799994 132.799994
187.799994 87.799994 137.799994
187.799994 87.799994 147.799994
187.799994 87.799994 152.799994
187.799994 87.799994 157.799994
187.799994 87.799994 182.799994
187.799994 87.799994 187.799994
187.799994 92.799994 102.799994
187.799994 92.799994 112.799994
187.799994 92.799994 122.799994
187.799994 92.799994 127.799994
187.799994 92.799994 132.799994
187.799994 92.799994 137.799994
187.799994 92.799994 142.799994
187.799994 92.799994 147.799994
187.799994 92.799994 152.799994
187.799994 92.799994 157.799994
187.799994 92.799994 172.799994
187.799994 97.799994 97.799994
187.799994 97.799994 102.799994
187.799994 97.799994 107.799994
187.799994 97.799994 112.799994
187.799994 97.799994 117.799994
187.799994 97.799994 122.799994
187.799994 97.799994 127.799994
187.799994 97.799994 137.799994
187.799994 97.799994 142.799994
187.799994 97.799994 147.799994
187.799994 97.799994 157.799994
187.799994 97.799994 162.799994
187.799994 97.799994 167.799994
187.799994 97.799994 172.799994
187.799994 97.799994 182.799994
187.799994 97.799994 187.799994
187.799994 102.799994 87.799994
187.799994 102.799994 92.799994
187.799994 102.799994 97.799994
187.799994 102.799994 102.799994
187.799994 102.799994 107.799994
187.799994 102.799994 112.799994
187.799994 102.799994 117.799994
187.799994 102.799994 122.799994
187.799994 102.799994 127.799994
187.799994 102.799994 137.799994
187.799994 102.799994 142.799994
187.799994 102.799994 147.799994
187.799994 102.799994 157.799994
187.799994 102.799994 162.799994
187.799994 102.799994 167.799994
187.799994 102.799994 172.799994
187.799994 102.799994 192.799994
187.799994 107.799994 87.799994
187.799994 107.799994 92.799994
187.799994 107.799994 97.799994
187.799994 107.799994 122.799994
187.799994 107.799994 127.799994
187.799994 107.799994 132.799994
187.799994 107.799994 137.799994
187.799994 107.799994 147.799994
187.799994 107.799994 152.799994
187.799994 107.799994 157.799994
187.799994 107.799994 162.799994
187.799994 107.799994 167.799994
187.799994 107.799994 172.799994
187.799994 107.799994 177.799994
187.799994 107.799994 182.799994
187.799994 107.799994 187.799994
187.799994 112.799994 87.799994
187.799994 112.799994 92.799994
187.799994 112.799994 97.799994
187.799994 112.799994 107.799994
187.799994 112.799994 112.799994
187.799994 112.799994 122.799994
187.799994 112.799994 127.799994
187.799994 112.799994 132.799994
187.799994 112.799994 147.799994
187.799994 112.799994 152.799994
187.799994 112.799994 162.799994
187.799994 112.799994 167.799994
187.799994 112.799994 172.799994
187.799994 112.799994 177.799994
187.799994 112.799994 182.799994
187.799994 112.799994 187.799994
187.799994 112.799994 192.799994
187.799994 117.799994 87.799994
187.799994 117.799994 92.799994
187.799994 117.799994 97.799994
187.799994 117.799994 102.799994
187.799994 117.799994 112.799994
187.799994 117.799994 117.799994
187.799994 117.799994 142.799994
187.799994 117.799994 152.799994
187.799994 117.799994 157.799994
187.799994 117.799994 162.799994
187.799994 117.799994 167.799994
187.799994 117.799994 177.799994
187.799994 117.799994 182.799994
187.799994 117.799994 187.799994
187.799994 117.799994 192.799994
187.799994 122.799994 87.799994
187.799994 122.799994 92.799994
187.799994 122.799994 97.799994
187.799994 122.799994 102.799994
187.799994 122.799994 112.799994
187.799994 122.799994 117.799994
187.799994 122.799994 122.799994
187.799994 122.799994 142.799994
187.799994 122.799994 157.799994
187.799994 122.799994 162.799994
187.799994 122.799994 167.799994
187.799994 122.799994 172.799994
187.799994 122.799994 177.799994
187.799994 122.799994 182.799994
187.799994 122.799994 187.799994
187.799994 122.799994 192.799994
187.799994 122.799994 197.799994
187.799994 127.799994 77.799994
187.799994 127.799994 82.799994
187.799994 127.799994 87.799994
187.799994 127.799994 92.799994
187.799994 127.799994 97.799994
187.799994 127.799994 102.799994
187.799994 127.799994 107.799994
187.799994 127.799994 112.799994
187.799994 127.799994 117.799994
187.799994 127.799994 122.799994
187.799994 127.799994 127.799994
187.799994 127.799994 132.799994
187.799994 127.799994 137.799994
187.799994 127.799994 142.799994
187.799994 127.799994 157.799994
187.799994 127.799994 162.799994
187.799994 127.799994 167.799994
187.799994 127.799994 172.799994
187.799994 127.799994 192.799994
187.799994 127.799994 197.799994
187.799994 132.799994 77.799994
187.799994 132.799994 82.799994
187.799994 132.799994 87.799994
187.799994 132.799994 92.799994
187.799994 132.799994 97.799994
187.799994 132.799994 102.799994
187.799994 132.799994 107.799994
187.799994 132.799994 112.799994
187.799994 132.799994 117.799994
187.799994 132.799994 157.799994
187.799994 132.799994 162.799994
187.799994 132.799994 167.799994
187.799994 132.799994 197.799994
187.799994 137.799994 82.799994
187.799994 137.799994 87.799994
187.799994 137.799994 92.799994
187.799994 137.799994 97.799994
187.799994 137.799994 137.799994
187.799994 137.799994 142.799994
187.799994 137.799994 147.799994
187.799994 137.799994 152.799994
187.799994 137.799994 157.799994
187.799994 137.799994 162.799994
187.799994 137.799994 167.799994
187.799994 142.799994 87.799994
187.799994 142.799994 92.799994
187.799994 142.799994 97.799994
187.799994 142.799994 117.799994
187.799994 142.799994 122.799994
187.799994 142.799994 147.799994
187.799994 142.799994 152.799994
187.799994 142.799994 157.799994
187.799994 142.799994 162.799994
187.799994 142.799994 167.799994
187.799994 142.799994 172.799994
187.799994 147.799994 87.799994
187.799994 147.799994 97.799994
187.799994 147.799994 117.799994
187.799994 147.799994 122.799994
187.799994 147.799994 142.799994
187.799994 147.799994 147.799994
187.799994 147.799994 152.799994
187.799994 147.799994 157.799994
187.799994 147.799994 162.799994
187.799994 147.799994 167.799994
187.799994 147.799994 177.799994
187.799994 152.799994 87.799994
187.799994 152.799994 92.799994
187.799994 152.799994 97.799994
187.799994 152.799994 102.799994
187.799994 152.799994 107.799994
187.799994 152.799994 112.799994
187.799994 152.799994 117.799994
187.799994 152.799994 122.799994
187.799994 152.799994 127.799994
187.799994 152.799994 137.799994
187.799994 152.799994 142.799994
187.799994 152.799994 147.799994
187.799994 152.799994 152.799994
187.799994 152.799994 162.799994
187.799994 152.799994 167.799994
187.799994 152.799994 172.799994
187.799994 152.799994 177.799994
187.799994 157.799994 87.799994
187.799994 157.799994 92.799994
187.799994 157.799994 97.799994
187.799994 157.799994 102.799994
187.799994 157.799994 107.799994
187.799994 157.799994 137.799994
187.799994 157.799994 142.799994
187.799994 157.799994 147.799994
187.799994 157.799994 152.799994
187.799994 157.799994 157.799994
187.799994 157.799994 167.799994
187.799994 157.799994 172.799994
187.799994 157.799994 177.799994
187.799994 162.799994 132.799994
187.799994 162.799994 137.799994
187.799994 162.799994 142.799994
187.799994 162.799994 147.799994
187.799994 162.799994 152.799994
187.799994 162.799994 157.799994
187.799994 162.799994 172.799994
187.799994 167.799994 132.799994
187.799994 167.799994 137.799994
187.799994 167.799994 142.799994
187.799994 167.799994 147.799994
187.799994 167.799994 152.799994
187.799994 167.799994 157.799994
187.799994 172.799994 132.799994
187.799994 172.799994 137.799994
187.799994 172.799994 142.799994
187.799994 172.799994 147.799994
187.799994 177.799994 137.799994
187.799994 177.799994 142.799994
187.799994 177.799994 147.799994
187.799994 182.799994 142.799994
192.799994 42.799994 122.799994
192.799994 42.799994 127.799994
192.799994 42.799994 132.799994
192.799994 47.799994 122.799994
192.799994 47.799994 127.799994
192.799994 52.799994 122.799994
192.799994 52.799994 127.799994
192.799994 52.799994 147.799994
192.799994 52.799994 152.799994
192.799994 57.799994 122.799994
192.799994 57.799994 127.799994
192.799994 57.799994 132.799994
192.799994 57.799994 137.799994
192.799994 57.799994 147.799994
192.799994 57.799994 152.799994
192.799994 57.799994 157.799994
192.799994 57.799994 162.799994
192.799994 62.799994 122.799994
192.799994 62.799994 127.799994
192.799994 62.799994 132.799994
192.799994 62.799994 137.799994
192.799994 62.799994 142.799994
192.799994 62.799994 147.799994
192.799994 62.799994 152.799994
192.799994 62.799994 157.799994
192.799994 62.799994 162.799994
192.799994 62.799994 167.799994
192.799994 67.799994 127.799994
192.799994 67.799994 132.799994
192.799994 67.799994 142.799994
192.799994 67.799994 147.799994
192.799994 67.799994 152.799994
192.799994 67.799994 167.799994
192.799994 67.799994 172.799994
192.799994 72.799994 112.799994
192.799994 72.799994 132.799994
192.799994 72.799994 137.799994
192.799994 72.799994 142.799994
192.799994 72.799994 147.799994
192.799994 72.799994 152.799994
192.799994 72.799994 157.799994
192.799994 72.799994 167.799994
192.799994 72.799994 172.799994
192.799994 72.799994 177.799994
192.799994 77.799994 102.799994
192.799994 77.799994 107.799994
192.799994 77.799994 112.799994
192.799994 77.799994 142.799994
192.799994 77.799994 147.799994
192.799994 77.799994 152.799994
192.799994 77.799994 157.799994
192.799994 77.799994 162.799994
192.799994 77.799994 167.799994
192.799994 77.799994 172.799994
192.799994 77.799994 177.799994
192.799994 82.799994 102.799994
192.799994 82.799994 107.799994
192.799994 82.799994 117.799994
192.799994 82.799994 122.799994
192.799994 82.799994 142.799994
192.799994 82.799994 147.799994
192.799994 82.799994 152.799994
192.799994 82.799994 157.799994
192.799994 82.799994 162.799994
192.799994 82.799994 167.799994
192.799994 82.799994 172.799994
192.799994 82.799994 177.799994
192.799994 82.799994 182.799994
192.799994 87.799994 112.799994
192.799994 87.799994 117.799994
192.799994 87.799994 122.799994
192.799994 87.799994 127.799994
192.799994 87.799994 132.799994
192.799994 87.799994 137.799994
192.799994 87.799994 142.799994
192.799994 87.799994 147.799994
192.799994 87.799994 152.799994
192.799994 87.799994 157.799994
192.799994 87.799994 167.799994
192.799994 87.799994 172.799994
192.799994 87.799994 177.799994
192.799994 87.799994 182.799994
192.799994 87.799994 187.799994
192.799994 92.799994 132.799994
192.799994 92.799994 137.799994
192.799994 92.799994 142.799994
192.799994 92.799994 147.799994
192.799994 92.799994 152.799994
192.799994 92.799994 157.799994
192.799994 92.799994 167.799994
192.799994 92.799994 172.799994
192.799994 92.799994 177.799994
192.799994 97.799994 87.799994
192.799994 97.799994 92.799994
192.799994 97.799994 97.799994
192.799994 97.799994 102.799994
192.799994 97.799994 107.799994
192.799994 97.799994 112.799994
192.799994 97.799994 117.799994
192.799994 97.799994 122.799994
192.799994 97.799994 132.799994
192.799994 97.799994 137.799994
192.799994 97.799994 142.799994
192.799994 97.799994 147.799994
192.799994 97.799994 157.799994
192.799994 97.799994 162.799994
192.799994 97.799994 167.799994
192.799994 97.799994 172.799994
192.799994 97.799994 177.799994
192.799994 97.799994 182.799994
192.799994 97.799994 187.799994
192.799994 102.799994 87.799994
192.799994 102.799994 92.799994
192.799994 102.799994 97.799994
192.799994 102.799994 102.799994
192.799994 102.799994 107.799994
192.799994 102.799994 112.799994
192.799994 102.799994 117.799994
192.799994 102.799994 127.799994
192.799994 102.799994 132.799994
192.799994 102.799994 137.799994
192.799994 102.799994 142.799994
192.799994 102.799994 152.799994
192.799994 102.799994 157.799994
192.799994 102.799994 162.799994
192.799994 102.799994 167.799994
192.799994 102.799994 172.799994
192.799994 102.799994 177.799994
192.799994 102.799994 182.799994
192.799994 102.799994 187.799994
192.799994 107.799994 77.799994
192.799994 107.799994 82.799994
192.799994 107.799994 87.799994
192.799994 107.799994 92.799994
192.799994 107.799994 97.799994
192.799994 107.799994 102.799994
192.799994 107.799994 107.799994
192.799994 107.799994 112.799994
192.799994 107.799994 127.799994
192.799994 107.799994 132.799994
192.799994 107.799994 137.799994
192.799994 107.799994 142.799994
192.799994 107.799994 147.799994
192.799994 107.799994 152.799994
192.799994 107.799994 157.799994
192.799994 107.799994 162.799994
192.799994 107.799994 167.799994
192.799994 107.799994 172.799994
192.799994 107.799994 177.799994
192.799994 107.799994 182.799994
192.799994 107.799994 187.799994
192.799994 112.799994 87.799994
192.799994 112.799994 92.799994
192.799994 112.799994 97.799994
192.799994 112.799994 102.799994
192.799994 112.799994 107.799994
192.799994 112.799994 112.799994
192.799994 112.799994 117.799994
192.799994 112.799994 122.799994
192.799994 112.799994 127.799994
192.799994 112.799994 147.799994
192.799994 112.799994 162.799994
192.799994 112.799994 167.799994
192.799994 112.799994 172.799994
192.799994 112.799994 177.799994
192.799994 112.799994 182.799994
192.799994 112.799994 187.799994
192.799994 112.799994 192.799994
192.799994 117.799994 92.799994
192.799994 117.799994 97.799994
192.799994 117.799994 102.799994
192.799994 117.799994 107.799994
192.799994 117.799994 117.799994
192.799994 117.799994 122.799994
192.799994 117.799994 127.799994
192.799994 117.799994 147.799994
192.799994 117.799994 152.799994
192.799994 117.799994 157.799994
192.799994 117.799994 162.799994
192.799994 117.799994 167.799994
192.799994 117.799994 172.799994
192.799994 117.799994 182.799994
192.799994 117.799994 187.799994
192.799994 117.799994 192.799994
192.799994 122.799994 102.799994
192.799994 122.799994 107.799994
192.799994 122.799994 112.799994
192.799994 122.799994 117.799994
192.799994 122.799994 122.799994
192.799994 122.799994 127.799994
192.799994 122.799994 132.799994
192.799994 122.799994 142.799994
192.799994 122.799994 147.799994
192.799994 122.799994 157.799994
192.799994 122.799994 167.799994
192.799994 122.799994 172.799994
192.799994 122.799994 182.799994
192.799994 122.799994 187.799994
192.799994 122.799994 192.799994
192.799994 122.799994 197.799994
192.799994 127.799994 87.799994
192.799994 127.799994 92.799994
192.799994 127.799994 97.799994
192.799994 127.799994 102.799994
192.799994 127.799994 107.799994
192.799994 127.799994 112.799994
192.799994 127.799994 117.799994
192.799994 127.799994 122.799994
192.799994 127.799994 127.799994
192.799994 127.799994 132.799994
192.799994 127.799994 137.799994
192.799994 127.799994 142.799994
192.799994 127.799994 147.799994
192.799994 127.799994 157.799994
192.799994 127.799994 162.799994
192.799994 127.799994 167.799994
192.799994 127.799994 172.799994
192.799994 127.799994 192.799994
192.799994 127.799994 197.799994
192.799994 132.799994 87.799994
192.799994 132.799994 92.799994
192.799994 132.799994 97.799994
192.799994 132.799994 102.799994
192.799994 132.799994 107.799994
192.799994 132.799994 112.799994
192.799994 132.799994 117.799994
192.799994 132.799994 122.799994
192.799994 132.799994 127.799994
192.799994 132.799994 132.799994
192.799994 132.799994 152.799994
192.799994 132.799994 157.799994
192.799994 132.799994 167.799994
192.799994 137.799994 87.799994
192.799994 137.799994 92.799994
192.799994 137.799994 97.799994
192.799994 137.799994 102.799994
192.799994 137.799994 117.799994
192.799994 137.799994 122.799994
192.799994 137.799994 127.799994
192.799994 137.799994 137.799994
