-52.65446        7.39940        71.54175
-44.49869        14.63528        27.18182
-56.15254        4.94047        19.40569
-48.50585        13.58631        -10.29482
-54.47829        18.79592        -14.85230
-48.37393        -32.11259        29.18784
-47.09168        -27.89158        34.04796
-46.98721        -16.16713        61.49053
-43.74655        39.95134        75.02149
-45.59813        -19.93357        71.06253
-45.32966        -4.53168        53.76475
-46.39403        9.50225        -5.33513
-45.85855        14.40683        50.94341
-47.30308        24.87081        19.38866
-33.23349        48.18692        78.42505
-28.63051        -30.82787        21.39264
-29.29768        -26.35785        74.61083
-39.62505        -19.43840        29.69187
-38.80354        -20.00859        60.61497
-37.67426        -5.54723        29.91316
-38.45623        -17.54694        39.29410
-39.34940        -12.32501        50.91028
-39.58303        -10.26713        55.92676
-39.01296        -5.10948        47.46393
-41.71336        -5.16019        60.95371
-38.71803        -5.19364        66.59836
-37.76850        0.11691        59.83454
-33.69621        14.24554        69.87581
-38.01655        9.66824        29.17206
-39.76001        19.69240        39.60800
-41.85038        19.77100        46.29000
-33.38088        27.37667        56.48086
-37.56004        37.09669        60.22290
-18.17362        36.66607        70.95774
-34.49603        -39.18044        72.86488
-34.96951        -33.85797        70.78927
-33.78403        -23.69373        53.55514
-37.38646        -14.93444        46.13554
-31.85491        -12.55147        61.02180
-28.04815        -3.72902        50.67206
-31.94473        9.38706        13.46719
-34.87432        4.40109        26.46819
-37.08771        14.43470        -12.53308
-34.15735        35.12996        80.07317
-34.44419        39.80881        84.04495
-28.79622        -14.05572        56.09124
-17.05602        -7.52248        -32.51804
-29.57205        0.01693        26.76025
-29.18235        0.41298        60.26541
-30.38212        9.60197        55.58085
-29.85724        22.21094        20.17458
-28.13023        23.99826        50.17663
-27.89191        41.01461        28.91391
-29.08402        39.84673        60.15753
-32.19029        46.15057        19.15853
-28.83827        45.59570        24.76253
-11.86481        53.86398        28.15487
-26.76014        -65.57957        -7.29304
-24.67612        -58.09254        -10.02320
-25.77871        -52.65832        -5.67790
-24.85652        -19.46851        10.39592
-18.38508        -5.48479        67.95995
11.25911        -9.90555        -62.96775
-22.12932        -0.49638        27.62548
-24.21337        -0.06690        60.68970
-22.57546        5.22041        53.86645
-20.06969        7.39131        68.23272
-25.97996        14.63982        22.71477
-21.39124        18.03817        56.88443
-24.88217        37.47325        13.35610
-24.51375        30.72562        55.95161
-13.88847        -37.32527        22.36658
2.88129        -29.97283        70.26457
-19.69954        -25.10817        28.67077
-17.70815        -19.32567        60.21918
-15.53377        -19.60548        8.18189
-22.42985        -19.55770        24.73594
-19.47457        -14.49967        14.21231
-19.46421        -14.13982        24.72520
-18.69614        -5.72823        52.90801
-19.35173        -10.37777        -74.69518
-20.41641        -0.40282        56.46988
-17.99131        7.83609        22.10865
-20.19976        12.20030        28.93887
-14.08676        35.05470        14.88297
-17.71595        39.10756        55.57355
-20.45221        45.42079        65.71272
0.51396        50.10038        72.57864
-9.79063        -21.81623        25.80863
-15.25731        -24.17606        69.59456
-13.26937        -17.15499        73.61945
-15.59817        -9.81085        -46.66316
-15.01124        -8.94934        14.36819
-14.73757        -10.47882        56.46935
-14.08836        -5.11125        -70.49309
-14.71447        -2.10737        -23.28197
-13.89832        9.62340        34.02333
-14.95749        14.96928        24.84844
-12.60620        18.44499        67.75893
-12.02466        19.76737        52.89893
-15.21731        21.80084        30.00258
-15.16871        24.93071        38.28452
-14.44008        28.80176        55.52476
-14.84412        34.70027        29.45257
-15.70792        46.42233        9.96466
-17.32030        42.90766        50.60178
-11.25849        46.77262        60.30499
0.20320        49.31941        -19.01850
-8.45694        -31.78326        24.61688
-10.35668        -16.91632        -45.35107
-10.32445        -14.75318        9.03096
-12.07512        -10.61724        23.92493
-5.65046        -9.83881        64.84586
-9.80123        -9.44755        72.23068
-7.76791        -0.99947        -24.31626
-9.95987        4.73413        -66.22119
4.10973        12.33066        20.61372
-9.81671        14.21094        23.72744
-11.41101        22.78839        33.98965
-6.42276        26.01136        74.63023
-12.43429        29.24684        65.22821
1.27767        33.50638        30.73369
-7.95733        37.12777        9.57416
-10.16388        45.92453        21.66011
-6.84006        46.07147        45.96942
-5.49231        -42.33358        -22.00178
5.46118        -34.62272        -33.09795
-5.20331        -38.73927        58.59172
-7.02300        -34.34859        -20.47448
-7.17537        -28.94416        -29.38354
-4.98400        -26.16623        -23.53664
-4.86157        -29.61607        30.72110
-5.91163        -9.84208        -55.75339
-0.35637        -7.24049        -33.99139
-7.46945        -9.72468        19.62093
-10.45901        -4.98767        -51.07018
-2.40110        -5.43861        19.39891
-2.33228        -6.12823        71.50617
-4.97788        14.38783        21.84890
-5.39934        15.09766        65.52498
-6.98285        24.04574        19.80699
-5.05808        20.22653        29.25418
-5.10561        19.89032        55.98313
-1.17974        21.30391        62.50653
-3.00914        23.98845        54.23922
-4.44298        38.95166        -29.14751
1.10434        37.88170        -17.48741
-5.03188        36.37161        19.59411
-5.05364        39.38854        45.80031
1.06231        39.00181        60.50644
-5.17876        57.88038        34.17973
1.55779        -45.19101        -29.24304
13.39231        -47.12846        27.83235
0.55926        -39.70529        -22.31238
1.48098        -39.29232        31.13742
2.11935        -36.06673        39.55775
2.11650        -34.21320        33.86522
-0.72636        -20.03021        58.14842
-0.36188        -9.62150        -17.13476
0.63530        -4.66182        -10.71540
7.55222        -2.88610        54.60761
0.55791        -0.97554        -19.42519
0.88275        0.31321        16.85860
8.21146        3.02895        66.42727
0.18582        9.71769        -39.25096
12.49819        18.37748        -27.90845
2.93052        16.26207        69.22327
2.27657        19.83080        -29.49200
-3.02711        29.07546        50.96984
0.24334        28.86564        56.36048
0.08943        36.55935        50.52435
5.45254        39.16894        -33.51603
-0.17183        45.69388        -38.82457
4.60871        -45.65179        39.11628
4.95087        -39.23086        -29.27736
5.42324        -30.01887        56.13977
4.98998        -31.97765        60.90904
5.63243        -17.05782        15.42179
8.67026        -24.75195        24.50992
4.50965        -18.01523        -35.07994
10.09141        -14.34932        -73.25441
5.37898        -14.59318        -65.61453
1.78298        -15.00925        -29.14175
8.41540        -10.05657        -12.19311
6.07182        -12.56966        62.40550
9.31426        -4.98747        -65.70792
4.09061        -9.80767        -58.47895
1.97856        -9.88187        -48.56912
7.77014        -12.56246        28.84524
8.10676        -7.58149        75.45563
5.31296        -2.43431        5.49959
9.22577        -3.59582        -28.91480
4.30992        -0.73961        -12.51282
5.75030        5.75903        -51.10372
11.09542        12.81546        53.35712
4.63406        19.53445        53.30425
5.53443        23.79040        33.55315
4.33753        29.44263        62.88169
14.84004        29.88991        74.14364
5.17159        33.82020        -34.03533
4.53550        39.02073        82.11301
27.55942        -21.08509        29.68502
13.78885        -15.23156        -57.41926
9.96165        -15.33725        -48.57163
10.62278        -15.40105        -39.08560
10.62723        -14.95189        -29.33838
10.62629        -14.95061        9.09416
9.86597        -14.33583        72.82858
9.24741        -4.98163        9.73875
9.44933        -12.16706        24.17275
12.36688        -0.50326        23.68533
18.51004        -0.08080        17.03098
30.18831        26.69440        33.60413
9.93161        16.99635        34.52437
9.91782        19.51233        15.56681
9.84976        22.98284        56.80407
9.06432        24.44135        38.36177
9.37283        33.17147        18.93055
13.68823        49.82623        20.32259
9.08552        45.29582        65.48947
8.98737        45.86026        70.60812
9.90445        48.04431        33.47430
14.36414        -45.11799        -70.07755
14.41519        -39.95071        38.41616
14.72298        -34.54208        87.66754
14.65941        -29.58407        5.65043
15.96533        -28.14717        15.54608
27.75214        1.26103        69.35322
14.67506        -24.39714        -37.75567
16.97531        -25.11169        9.38625
14.80989        -24.72928        26.99976
14.01514        -13.48226        -34.04351
14.73438        -13.79103        -85.29548
18.21337        -10.85271        -74.72698
14.06011        -12.37848        52.70345
15.79829        -10.36829        -66.35018
14.74213        -10.59735        -39.29550
17.00172        -9.96435        18.40883
14.61629        -0.05584        30.07777
15.05536        7.29102        -20.27387
14.40843        1.87957        55.54843
14.51994        33.05622        23.64076
25.86029        48.67521        27.85931
22.73851        -34.78521        -86.82715
19.55034        -17.96662        17.93789
16.87557        -9.61124        -61.10066
19.76452        -7.55223        60.81924
19.04954        -5.92391        -84.81113
23.71032        -3.90434        -34.28592
18.69579        -0.52399        57.78334
19.31062        7.27618        34.31660
19.27197        9.57079        28.88515
19.42847        8.77638        64.49778
18.98374        10.04155        72.53949
22.77733        32.90493        17.75850
18.82720        33.54209        55.86729
28.06554        -20.72248        69.30577
24.75705        -19.60712        -17.54333
33.98763        -15.55539        -24.69169
23.59335        -1.13650        33.23570
28.16734        3.49272        85.79180
24.26930        9.85422        25.00847
24.66689        9.41048        62.74090
24.58730        14.49736        52.95215
26.02275        31.12873        75.37613
24.54618        38.58254        14.08338
28.85033        39.61104        38.61789
30.32628        -10.21942        38.95697
34.16181        -11.72797        45.42024
29.98808        -2.75299        60.50811
28.72941        -2.67161        24.30608
29.23586        4.59055        -75.43555
29.63806        5.57159        24.78589
29.73066        9.12663        20.13512
29.41871        39.63377        -19.59445
36.54298        37.16719        -7.53878
35.19199        46.73475        -10.40337
34.30111        -39.80294        -2.44443
34.04361        -34.36520        -5.13759
34.13040        -3.43981        41.18193
36.61836        1.32351        15.68748
37.04069        9.67627        14.75148
37.53377        38.99331        -20.71924
39.37909        -55.60501        -0.85225
39.82645        -50.53298        -3.33649
39.84281        -39.63736        -5.95961
51.18646        -3.81060        31.70349
39.32701        -0.76068        43.19155
39.99538        5.23643        33.45297
43.73085        8.57680        85.22250
39.16418        18.07339        37.01082
39.36624        45.63763        -10.12414
40.43629        54.75914        -6.64004
39.07352        50.40977        -29.59004
50.69360        -50.48502        -1.28151
45.63716        -41.52806        -0.33913
60.92574        -5.86093        -13.79549
45.74652        -14.85843        39.52716
45.54451        -14.33922        45.31561
44.19013        -7.79996        -70.51057
43.14517        4.77210        75.74732
43.00077        10.76945        32.63976
46.17189        18.51610        24.90698
45.38274        48.62904        -10.20643
43.21332        50.90135        -24.44761
43.52727        54.95361        -16.97158
50.18245        -46.48363        -12.05280
50.67364        -14.56204        -0.77149
50.71726        14.40717        26.61097
53.46777        -41.36628        -12.15449
55.53419        -9.85028        -5.00410
