-65.01342        10.45452        -12.33773
-50.30923        -0.13105        74.32489
-57.46649        5.96902        -27.78320
-60.07199        11.99062        -24.76771
-50.62149        12.06544        25.65722
-51.15407        13.49821        -11.19288
-56.32149        0.04532        20.11477
-56.72688        14.17327        -34.10279
-44.57449        -24.96233        -14.57105
-47.54297        -31.06642        25.91396
-50.49333        -30.10169        33.92994
-50.91884        -24.66391        39.10162
-47.34728        -16.75091        33.19062
-49.78607        14.19931        -25.79336
-46.26066        -19.61789        -34.20643
-41.58300        -19.73449        1.15759
-45.73374        -19.92819        42.85914
-45.18320        -19.75666        69.93331
-46.66946        -9.81398        31.25640
-45.91900        -5.51787        18.76205
-46.40422        -0.37587        14.17815
-45.67423        7.23568        63.23717
-35.78558        9.26458        70.96729
-45.91365        10.39808        38.21990
-34.63549        -22.96328        29.26221
-24.28888        -11.71632        -28.08653
-39.31927        -32.41763        39.21950
-37.86377        -24.23845        -0.23923
-39.13203        -22.57563        74.38084
-37.93895        -20.05520        -14.56929
-35.76265        -10.78395        57.71144
-39.56906        -19.56212        55.66642
-25.24024        -20.38851        72.47403
-38.99678        -5.01191        14.35557
-33.62147        5.70412        12.01837
-39.36509        9.71252        20.24992
-14.77032        24.72216        23.74385
-36.83634        16.45477        39.02850
-16.15242        34.74817        66.94798
-31.87168        -46.12445        23.89675
-33.76906        -39.07570        85.13867
-33.94782        -4.32023        24.63897
-33.37993        -5.34428        60.82387
-34.45454        -0.15963        55.51750
-33.04835        36.14510        19.35586
-29.46381        -46.12436        81.39053
-29.10619        -44.13180        74.99427
-29.79433        -36.80405        89.40143
-27.53130        -25.90310        22.36055
-29.09160        -24.26164        9.88040
-29.40380        -17.66437        56.02078
-24.44981        -14.75197        62.29031
-29.44702        -9.82491        70.23678
-25.90686        -8.27757        50.84909
-25.39148        -1.74978        26.86185
-29.62357        14.07087        56.26313
-24.06670        37.76147        26.35310
-29.69289        38.34472        14.20324
-14.04880        52.30690        25.04153
-20.93890        -47.82907        78.23039
-14.57870        -32.26626        28.23315
-24.85701        -24.88258        31.20977
-22.66337        -20.19437        12.90291
6.77591        -4.43348        -64.25130
-17.61007        -9.11495        28.88454
-23.72742        -4.59691        56.77454
-24.61812        2.16715        -24.41331
-19.51273        4.73795        15.54247
-24.48673        4.35007        53.18378
-25.51695        8.51592        33.44556
-27.25168        9.27233        55.50905
-27.62517        14.31971        65.44949
-22.85854        19.41085        50.11799
-24.59168        21.32910        67.15504
-24.68031        35.44145        11.34046
-24.61914        39.88609        84.59267
-10.79961        51.96928        -20.17735
-18.97153        -46.11582        23.81961
-19.65621        -42.23785        33.97646
-2.98938        -40.66427        66.80990
-19.26975        -27.01075        31.41709
-19.39288        -15.03279        -25.09930
-19.48543        -9.33250        -23.66614
-12.46930        -9.67716        68.77741
-15.58717        -7.54551        55.42109
-20.05195        -0.67611        -46.11917
-19.02033        6.51585        32.26724
-15.33422        7.82421        53.75809
-17.03436        13.63028        73.53064
-19.83668        14.29607        50.52510
-18.92978        21.20490        70.32736
-8.40056        39.25928        -31.25523
-21.87820        43.24777        5.36110
3.56409        -51.51665        31.54110
-14.79075        -29.31929        55.03748
-14.16881        -24.02364        -85.77352
-12.95151        -20.84795        62.69484
-14.26891        -24.44231        72.49403
-11.24195        -13.00638        22.38928
-15.11734        -20.37017        39.26645
-12.72642        -14.94299        53.50201
-14.66449        -4.77177        -47.38243
-13.73026        6.13211        29.00268
-16.68273        17.05475        21.94794
-0.12050        12.22346        66.53588
-14.97860        39.78322        34.95891
-14.37042        45.77995        18.88189
-14.54543        45.91592        37.85327
-14.71702        50.53216        14.90732
-8.30824        -48.38947        45.45991
-3.44149        -21.09814        54.26505
3.61337        -32.39133        76.55349
-9.40850        -19.11712        28.70392
-5.87782        -3.51747        24.50511
-9.96765        -5.13989        33.33954
-8.76029        3.27836        -22.55434
-10.10757        5.01094        15.28716
-10.42295        14.50960        -89.68387
-10.08877        19.26826        -84.92767
-10.01251        19.98740        55.02518
-10.91324        34.04504        19.98225
-5.83352        -55.10199        42.55340
-4.56598        -39.15790        70.15252
-8.30229        -21.91216        -84.61436
1.77316        -13.08662        68.59819
-1.12413        -6.95958        -49.70852
-5.17739        5.78638        -38.00707
-7.81632        12.23355        -84.79904
-5.10807        14.60318        -60.12435
4.72282        23.81079        -29.05652
-5.22722        16.54259        52.73881
-1.04221        21.22148        74.16791
-5.75454        24.70741        55.86459
-5.14163        24.43331        65.08769
-7.51496        34.72364        46.13543
1.64333        48.23240        30.95966
2.48730        -39.26433        55.99012
11.89062        -28.72842        -28.09698
0.17798        -29.93843        -29.65429
-0.53829        -23.50524        28.85190
0.14851        -24.27196        -26.54907
-2.36736        -20.01545        33.13794
1.85129        -6.35720        -74.74148
5.15980        -10.10821        -34.00411
0.17418        -4.85816        -90.01420
-0.10955        -5.17026        -55.66084
-0.03696        -4.81444        -39.01998
0.68834        -4.87421        -10.52740
4.19780        1.91866        -31.68213
0.21094        5.08882        10.09504
0.11940        14.48671        55.35690
5.52587        17.47281        61.05674
0.15694        18.54330        -60.02263
0.03126        41.81182        60.68077
7.02161        -58.98526        -1.96000
5.08634        -53.47279        -4.81208
4.06054        -46.18826        45.29567
11.04060        -31.50935        22.30093
5.40814        -37.22534        60.75561
5.02337        -24.82152        60.25778
4.21205        -15.11141        24.46827
3.88549        -10.31570        -60.67857
24.81937        19.34204        70.65421
10.03519        -3.51804        -78.93220
4.99793        3.94169        -74.76750
4.38518        3.89558        -46.28675
8.93802        3.18810        -13.20084
4.47951        5.46863        24.07506
4.98612        9.24326        5.62749
4.74206        14.85462        9.59125
4.69647        24.27891        50.74699
9.81557        -64.73316        -8.64317
11.93775        -15.13071        76.27059
10.46965        -15.24796        29.50321
10.08092        -9.15816        -55.02216
17.41931        -4.54107        58.64931
12.17470        -7.86896        -65.69977
12.64341        -4.55618        -24.06427
8.92465        -0.13084        -75.52491
6.79730        0.06194        -70.38296
10.24479        0.21815        -58.31181
9.54485        5.67455        9.73837
14.63771        7.17276        54.46760
15.39204        15.81107        14.02243
9.80833        13.96048        24.81228
10.54221        14.72632        54.93882
9.07322        19.68610        28.72091
9.21340        24.61709        65.00772
9.70029        32.99817        33.56102
9.90048        38.75213        17.40977
17.72737        47.05513        76.64159
14.40830        -60.64241        -5.24029
14.45587        -60.28085        24.81116
14.75717        -38.85208        23.96553
18.49823        -28.77225        38.73594
30.83136        -12.74100        70.93409
14.05864        -22.26409        33.68608
13.58580        -23.13811        64.03435
16.80815        -19.14829        55.01698
13.73887        -0.65555        -48.84624
11.61972        0.24925        -23.89869
14.60050        19.02110        -29.77096
16.90524        28.56066        19.60821
30.14011        29.22255        26.17186
14.30306        43.06156        15.29890
19.73584        -39.43244        31.53350
26.63050        -33.02008        77.31230
20.86795        -29.18932        -84.76040
19.23992        -29.38879        29.95528
32.38408        -27.81932        36.38521
19.68026        -23.89295        70.62280
19.67702        -10.66522        70.25888
19.53097        -10.03492        75.37092
23.22012        -4.11683        11.04843
33.87645        0.60328        -29.87149
19.79670        5.57254        14.97775
20.24599        9.56311        -95.06830
19.32682        15.45319        28.63947
19.80174        21.92250        24.61057
27.79234        52.79681        -10.07928
19.65397        42.88602        14.71883
19.56331        54.89788        -10.03447
19.33562        57.83802        -19.48564
23.75720        -46.01985        28.98493
26.39821        -9.75920        17.90209
24.78600        -9.49857        27.48804
24.15434        4.49234        19.38829
27.66595        6.45481        30.66475
24.48419        7.23863        53.86948
23.69524        23.69844        28.45434
24.86266        35.71666        84.76801
24.66928        39.16961        -7.89442
24.57726        43.42770        9.82770
28.72113        46.47301        23.29310
24.31261        63.14536        -26.70808
28.29601        -45.35055        82.40768
36.48977        -3.62920        14.86860
31.65701        -5.14791        28.76938
29.86347        4.18403        19.30716
36.20811        9.69197        26.69934
29.72359        13.76863        -31.66325
28.85834        39.16715        9.74002
33.63072        -20.19428        45.60161
34.20900        -14.23893        56.20961
34.69075        -9.97796        14.80097
33.59237        -9.82314        24.60440
30.88297        0.15764        23.82804
35.36253        36.72606        19.10325
37.94389        -25.25043        45.62696
38.29212        -9.93755        18.57866
39.26447        -10.26454        24.87358
39.56448        -2.96669        89.99966
39.02186        10.19126        37.92601
48.44886        -26.15741        30.10920
46.87642        -24.44002        42.85763
49.66564        -9.23435        29.61672
43.16762        -17.40545        43.35851
43.13063        -9.44187        -20.07134
47.81935        1.13255        81.49035
43.19241        4.18491        33.30087
44.48378        31.65354        26.87552
48.08309        -15.15057        20.21517
55.19958        -5.16609        -2.80980
63.28227        -10.77534        -0.18555
