-38.37436        12.93837        72.43819
-51.10962        4.35651        28.18191
-55.50363        12.39608        -14.31096
-48.49493        -29.34172        39.05584
-51.29814        9.55232        -8.83130
-46.74202        35.07928        74.67684
-46.61009        -34.16597        38.42808
-45.95837        -21.21974        40.19133
-46.32299        5.40907        -12.25658
-46.20895        14.57776        -7.30065
-45.73642        16.87763        59.87904
-33.31472        -18.66229        26.46206
-35.91677        -34.38645        40.48199
-28.44117        -24.73465        73.09040
-35.07434        -12.45337        56.91125
-39.08068        -5.10614        18.65069
-37.95504        4.56912        28.01006
-32.33338        13.02631        71.52223
-30.35298        28.89273        26.34095
-41.95621        15.10900        39.32118
-34.80005        22.79901        54.10267
-39.47866        29.35980        31.39266
-33.76452        40.60640        83.98244
-12.43537        46.71799        72.76985
-31.91848        -47.05120        28.10809
-22.56623        -4.73990        -29.32449
-33.37242        9.36139        33.36278
-34.07878        34.36106        30.29547
-14.55972        -46.33370        75.82869
-34.24525        -24.28641        46.08656
-28.91113        -0.85376        61.80636
-29.70068        4.70042        55.65217
-28.71621        5.36327        61.21103
-21.24611        7.22588        24.95174
-29.20627        9.22161        65.48790
-31.60138        14.23294        19.71063
-28.17954        19.19300        50.48258
-30.17276        35.00917        60.63358
-18.53230        52.88459        26.46131
-18.20705        -54.23505        -5.34342
-24.32942        -46.98222        -2.31393
-24.45029        -46.02414        24.36297
-24.39306        -46.31429        75.27560
-23.67783        -39.25222        89.25367
-21.41661        -30.53947        9.03003
-20.13905        -31.84893        18.85381
-17.81450        -17.80646        15.36969
-18.07855        -4.10198        67.67736
6.00514        -5.05271        -64.36241
-17.98457        -9.42022        55.37974
-20.64876        5.14953        53.05587
-24.67674        14.20154        51.73310
-23.97548        24.82859        57.81158
-9.05091        50.99563        -20.02577
-12.30263        -44.57609        28.72971
-19.81817        -39.01157        18.56123
-19.64019        -39.36070        65.45209
-18.56038        -37.50912        73.55472
-20.25415        -24.78653        10.89745
-20.56629        -25.03965        25.23678
-19.36127        -19.41312        -85.09730
-19.40432        -19.83694        26.37877
-19.61646        9.86277        55.51386
-16.44333        9.77848        62.96707
-18.89097        24.71385        25.61444
-19.61149        17.52780        61.91367
-20.00342        19.37346        34.11439
-17.12269        21.73395        38.37387
-22.36234        24.24818        29.27986
-13.31234        32.12232        10.93814
-19.90227        36.59250        56.00871
-19.60897        46.07760        38.66477
-9.19706        -38.76902        23.87899
-14.60822        -39.95832        64.52794
-15.42006        -36.78787        83.19915
18.41443        -4.82930        69.92597
-7.53198        -28.94520        26.97996
-14.81730        -28.75011        60.68733
-11.69605        -18.41059        62.34179
-14.76301        -14.62018        -60.11263
-14.77636        -4.95639        -24.47391
-14.40952        -1.55367        28.39513
-14.79268        4.71708        -29.32281
-15.29011        4.50106        33.81188
-10.84123        15.04120        68.58939
-14.61206        19.57441        53.07082
-12.80278        24.52796        55.17980
-17.52000        29.62780        19.11736
-7.04780        39.21234        -26.02383
-11.99081        39.32397        39.01688
-15.29244        38.34857        50.77901
-14.21471        41.84892        56.68349
-14.73933        46.08631        -19.79169
-12.21891        -65.72348        -12.66113
-10.06713        -60.81562        -14.89792
-9.67310        -39.82456        34.64572
-9.76708        -29.42815        70.17129
-10.37734        -24.07790        71.86811
-7.87951        -14.51282        -38.54176
-8.14270        -18.45471        27.20011
-9.96748        -13.15439        55.63309
0.55671        -10.79762        67.93652
-6.59132        18.21883        24.01343
-7.42258        17.05642        54.03029
-10.06158        18.91024        34.03339
-12.40303        24.33765        14.31119
-10.41556        28.19730        33.67833
-10.63490        24.28179        65.12112
-9.88414        33.92488        31.49564
-1.29199        37.16138        54.71189
-5.15604        38.95733        -34.04682
-8.02630        39.39742        -6.93176
-4.10659        49.44367        34.33511
-9.48124        45.49168        60.63590
-9.66288        50.57257        42.86424
5.48236        -30.26413        -29.00481
-5.67266        -22.87309        -80.65966
-5.76919        -24.22999        52.19826
-4.30790        -20.40165        -22.79965
0.41866        -15.30337        55.86197
-4.43211        -9.23835        -34.16510
4.40596        22.42201        -30.19431
-2.07110        6.46147        23.25280
-4.40847        24.19241        51.27499
23.59649        16.74543        29.42687
-2.03466        33.17912        68.33145
-5.03779        45.59549        55.95996
15.43027        -48.05983        30.45739
17.01381        -36.42161        31.28805
-1.13436        -25.32330        -20.58351
4.75513        -16.47950        15.78986
6.72353        -5.56750        -77.56479
1.40777        -10.74272        -59.15239
0.43392        -7.00848        -19.95920
-0.30202        -4.62906        -55.92381
-0.58259        -5.31187        -48.61406
-0.55116        -2.26460        -31.93316
0.09615        -0.63830        -63.10824
-1.20830        5.06454        -34.85826
0.07106        10.45852        -51.12036
2.92311        21.41951        29.01282
0.61448        28.59283        56.55264
1.79349        39.06608        -8.46813
8.14434        -25.70320        16.86709
5.58990        -22.24961        27.62737
7.86866        -11.07922        -52.45350
4.48158        -10.69549        -38.87460
6.42954        -9.82010        -13.25186
8.49054        -1.27561        -20.66141
4.58011        -5.36745        5.79582
4.79645        -0.59733        10.43847
4.08620        3.71938        -51.00668
4.86871        3.71941        -38.88965
4.77256        12.14902        18.72417
7.16350        12.13233        53.58771
7.50037        19.79223        55.17987
4.82640        24.19316        37.68586
3.92393        27.60091        62.10623
4.84283        37.81542        82.16287
4.50908        39.18966        21.69126
5.28840        39.85554        74.84419
8.13139        47.76158        19.00787
4.05863        47.94561        33.80866
9.98221        -61.81636        -29.33147
16.78814        -61.03076        -23.83326
10.48032        -56.02576        -24.66838
17.12616        -51.19046        -10.60199
9.62901        -50.44376        39.56520
10.16302        -45.98905        -27.09407
9.90758        -29.24610        25.59513
11.02651        -18.08509        9.37930
10.05128        -13.93530        26.75678
10.34790        -5.64994        -31.46088
8.62379        -9.84858        9.12391
11.36947        -1.77258        -53.28542
8.99539        -4.75500        9.65135
9.75104        2.05187        13.77216
17.72805        -5.22229        20.86425
9.54630        9.33021        62.70685
10.40137        21.96360        -18.12187
12.15194        39.21160        14.36850
13.52835        51.25920        80.45635
14.97753        -64.88732        -28.94400
25.65478        -60.05151        -9.52861
18.14088        -30.69116        12.75311
14.50775        -17.31951        65.40010
14.21333        -10.02177        29.97924
14.66037        0.57501        55.01639
15.25992        2.00666        -37.81747
19.25543        -0.32287        14.27361
17.35780        7.44906        62.26060
13.72478        10.19054        -22.64476
17.74747        13.86401        52.05541
13.72368        20.28268        -24.65192
22.90509        -53.61987        -26.88906
19.70504        -56.09838        -19.62961
22.32470        -10.48920        -19.92216
19.07304        -3.61799        62.18175
32.74067        -4.60133        -28.88364
19.26300        9.53974        72.37236
20.26477        34.46808        39.51752
30.65293        50.67483        -9.96867
26.95208        47.68681        26.77181
18.91739        45.68219        77.49787
24.68387        15.26417        66.76863
24.83541        26.90012        45.40641
28.67882        38.47968        -8.00104
31.00040        -27.29035        18.52054
28.93404        -5.24244        -20.25725
29.30676        -7.61236        45.23247
37.46235        7.21837        16.36915
28.80611        9.48442        -89.89748
29.10925        53.21016        20.30268
29.24342        61.91130        -23.17154
37.55412        6.40496        89.13586
33.77818        57.94971        -27.30788
33.48480        60.60022        -15.02349
39.28731        -1.79420        41.25746
40.28293        11.40668        31.54916
39.24648        19.38444        24.30666
51.24745        -2.77962        27.93080
48.77811        -14.49052        39.09405
45.72770        -12.02568        44.16424
43.38545        -12.61581        -15.05584
59.42941        -5.56956        -3.82126
48.22062        -4.35686        39.22517
47.00068        9.29959        80.44161
60.70156        -11.58293        -14.80350
61.64474        -9.56964        -19.47587
65.07247        -0.71456        -19.70298
