74.07388        108.06370        116.35353
77.38712        113.91908        128.20804
77.96806        97.69135        143.41875
77.86432        105.35306        126.29356
80.84589        107.40962        137.60087
81.12315        124.73203        122.80665
80.63813        103.21770        117.13005
83.16187        103.01154        152.87877
82.63970        109.31031        107.38847
80.49435        112.53482        116.19345
82.32105        132.98292        111.89098
87.57206        94.96777        123.87386
88.33167        102.16857        117.41549
90.12879        112.07585        98.15271
87.99765        113.08249        131.49701
89.90878        127.11533        133.79137
91.75933        128.84235        141.20154
88.86192        131.88203        90.86132
88.25940        131.43262        103.28169
88.60720        142.95157        96.62252
100.32991        168.63752        125.55439
90.98656        90.85778        153.57738
90.85671        96.56095        143.22250
91.65347        119.49285        153.42323
92.96219        123.27671        131.29054
93.97208        122.93336        142.61460
92.54536        126.71938        112.63958
92.67648        132.06663        123.26445
90.71703        153.10311        131.67905
93.26137        182.69799        112.93769
103.59898        90.55531        129.26274
97.97685        90.97816        135.73328
99.05427        107.81518        133.10790
96.82794        113.07933        136.89046
98.59182        112.16215        148.04691
99.54744        117.51676        89.73122
96.41216        117.93978        128.26277
96.19189        117.92726        139.75088
98.29274        123.58791        152.48833
99.99438        129.67206        88.13017
97.81029        136.50505        83.18233
99.09464        167.20450        153.30290
103.40968        98.20781        120.71669
102.82011        103.61392        140.62138
100.15134        103.83421        128.21704
101.69962        101.38737        163.51862
105.61705        110.53982        124.74125
105.55080        112.66893        141.29103
105.46533        121.69049        119.61348
104.54979        122.67184        131.87967
101.74874        158.22278        134.16263
103.96478        168.98784        132.61021
104.95202        168.78569        153.85102
104.57512        172.93682        112.39838
102.51579        172.66639        146.05840
112.63058        172.53718        130.15518
105.52472        181.77752        122.73739
110.38517        93.60109        141.28926
106.98909        92.67836        113.43450
109.45155        98.70301        133.57981
108.81459        103.50500        101.57083
105.44262        103.36929        156.09992
109.35425        112.24572        98.53178
108.78186        112.68922        153.29569
109.30309        117.13822        107.75833
107.07035        120.17557        141.16442
107.50509        115.85420        148.70692
107.46122        122.45904        86.10458
108.95426        126.12281        104.93541
107.72518        131.99272        112.66008
114.36721        140.52447        143.51371
110.59518        147.56250        152.53128
107.55159        163.31935        139.08487
111.13049        168.44749        142.34626
110.12392        181.08303        112.87627
107.66564        180.17524        142.41324
112.60969        86.86948        110.71565
112.69373        91.47894        123.36905
112.64301        88.15192        136.84048
112.96453        98.32635        126.00303
117.76934        100.63009        118.40529
112.74647        105.71911        128.54826
113.31971        104.82912        136.71260
110.84186        105.27281        148.15883
111.82428        107.02586        107.80714
112.91830        114.12297        117.18976
112.78639        112.97931        131.52877
114.67708        120.89791        127.53845
114.98090        117.88310        133.72514
113.22891        123.64062        152.25349
113.10191        128.92608        141.17477
114.44945        128.63371        149.48357
113.65253        133.47410        98.22892
112.74919        134.27078        111.10082
112.70731        158.02379        131.37845
116.48768        170.27722        152.71890
112.32413        178.27987        150.36277
117.06843        179.65805        138.56097
115.10125        182.74075        147.42230
112.29208        187.81625        133.29412
112.47484        196.95055        137.51415
117.21182        84.13480        108.13216
120.52425        83.18730        131.52278
123.56485        82.34742        140.27248
118.42346        81.28696        153.64517
115.96330        88.69585        117.31665
118.78231        93.54550        106.85217
120.83383        101.09410        107.83684
117.25115        112.62692        142.79963
118.71625        111.98318        152.95346
118.69430        120.62925        107.87775
117.91891        117.89644        146.09446
117.67065        122.87766        112.74788
116.09389        125.68034        117.93734
118.06193        122.65715        136.67021
120.00237        133.62249        112.27894
117.92230        133.64810        143.35487
119.77992        135.40683        159.15546
116.15165        142.46358        153.97488
118.03170        147.10605        97.88769
117.80867        148.03922        143.12144
120.67667        150.11409        147.85085
118.29901        158.33574        158.13930
120.56413        172.56980        142.46397
119.86799        177.56575        123.56754
120.48534        182.78920        112.92515
122.61521        182.83636        129.42784
118.06225        187.79597        123.61250
117.97550        188.00263        142.31948
121.64497        193.18465        136.80137
117.81555        193.37158        149.49302
118.26276        196.52179        126.12579
123.26439        102.37410        128.42721
123.15553        110.09912        112.53914
124.27008        112.55833        137.71416
124.60971        120.51966        117.99675
122.59903        123.02649        82.08613
123.26974        123.87942        138.47620
125.62267        128.10817        123.03145
123.11550        128.28501        131.52397
124.58133        127.46727        153.83260
124.48302        135.29406        149.00881
125.18794        137.87702        103.61732
124.71661        134.44006        122.07698
125.29017        140.49488        140.58386
123.72233        144.31106        134.13376
126.74466        148.29772        144.60671
123.09805        156.33897        139.83919
125.60231        152.83609        156.59235
122.72632        163.28507        126.11976
122.41479        163.69671        138.53770
123.29186        163.23910        150.45128
126.91510        163.94116        158.19235
125.08078        170.18692        125.48652
123.25044        168.76887        138.54617
124.37926        177.50824        133.06812
128.04743        181.53090        143.70184
122.57245        185.35412        107.80524
122.80619        184.92479        154.19225
123.45078        188.03078        127.89888
123.18740        195.42223        128.28569
123.63081        196.56360        143.30600
126.46999        88.46478        131.54643
128.03978        93.26341        133.77319
128.38137        103.55629        139.68559
128.41293        107.58611        102.43939
126.65056        112.39181        102.10842
127.78745        117.89256        96.58868
127.83426        118.17550        140.39993
129.83017        118.78452        148.72039
126.48376        125.81303        109.95206
128.28343        124.98464        82.61929
124.91625        128.50076        142.24190
127.85883        129.48976        166.61468
128.30215        140.80423        153.08805
127.35108        140.98925        158.10267
127.83994        142.35742        107.06669
128.37765        147.93708        131.36168
126.49293        147.74965        155.44810
127.63833        153.40974        91.52285
128.17182        155.52573        142.92332
125.15654        161.69509        133.95198
128.03721        163.20205        140.95381
128.61551        164.22636        147.87299
127.57576        170.56908        153.06244
125.94684        172.37351        133.52545
128.35710        183.03740        118.09986
128.42153        185.45293        134.00524
130.51302        187.22206        149.73147
130.49961        191.60160        123.83085
128.36460        194.77030        142.34220
135.06989        94.89225        118.10104
136.09278        111.92967        106.02514
131.72984        118.00298        107.87971
134.68779        126.30247        88.25522
133.56843        128.08842        93.70869
133.80368        128.70565        98.71238
131.91301        126.70190        138.43640
133.67918        132.47787        108.11918
133.64075        133.11492        117.98116
133.99637        133.75052        124.77924
134.89435        133.35769        158.29776
131.99888        137.26388        82.70833
133.38221        140.92451        137.97488
132.29855        142.99159        115.91386
132.53482        143.66232        133.64704
133.38964        142.72645        147.52757
136.10191        140.91118        161.67784
132.88248        148.30054        123.27591
133.02973        147.94384        128.74022
135.42579        147.46714        142.69775
132.05180        153.01693        128.35981
139.49462        155.10061        134.70596
137.88895        151.00066        155.02057
133.40337        158.20233        128.51562
135.50944        164.65410        150.86539
138.43201        165.45757        123.08778
133.67261        169.31810        134.34458
133.45587        172.72712        128.52615
135.02142        177.62554        120.75696
134.10464        177.19239        138.72004
131.59959        180.25989        152.39659
133.38745        185.71258        122.98517
133.80165        195.35449        139.06604
136.72879        85.33968        136.93360
137.23605        85.26894        156.78072
136.50081        103.06383        112.17690
138.39594        113.23705        153.13415
138.69748        119.00657        100.23927
137.15425        126.23810        83.24042
140.43843        142.58306        130.25551
137.72111        148.89842        116.57180
140.64306        148.08832        132.04652
137.04880        152.97029        90.95549
140.07986        152.69275        123.28947
136.98270        158.41721        145.48885
138.26482        163.28849        143.38969
141.39111        168.78100        128.38714
138.65372        168.95172        145.17919
145.81440        178.05436        139.08701
136.80806        177.47908        145.15720
141.02311        186.24438        141.22069
140.39910        186.82689        130.52634
139.74077        187.86103        151.19023
141.26592        195.48538        137.44838
142.14118        101.86819        99.26171
140.54238        123.68928        106.90948
143.45489        130.03729        111.10500
142.57508        138.81693        118.10226
141.84701        142.63469        152.36487
143.83032        160.29318        138.90277
142.19948        171.79030        138.27799
143.32958        173.13624        147.99624
142.98819        177.13845        151.07796
141.76319        183.54104        147.41416
147.17886        96.21203        118.50856
148.18785        104.96700        95.41173
149.45122        104.86282        107.63943
150.50625        112.46447        98.59940
147.79489        112.29265        103.74017
147.20423        112.63010        109.15821
147.59504        117.96986        107.91856
148.41628        122.92021        107.61969
147.83636        131.31184        86.25085
150.32153        144.12976        124.09443
148.05134        153.07433        114.07883
149.23174        165.81868        145.28565
147.61612        187.56001        132.91397
153.13453        98.04336        103.37841
153.06154        96.75412        147.14568
152.66278        117.93500        101.67038
155.46615        118.01118        113.08305
152.48050        122.76691        103.74610
154.24979        123.18422        116.09154
152.74899        131.51574        121.27941
154.80873        187.27097        133.77251
157.60416        108.15125        105.67260
156.51515        101.63466        118.46510
158.01697        106.62063        147.03452
158.21274        126.05077        91.12672
155.97856        138.71941        92.62130
157.63203        143.32514        122.38338
158.10552        147.70077        103.29063
156.30950        153.72145        114.50440
162.98141        96.92343        126.16241
163.34047        105.32892        131.13739
161.42681        117.67478        97.85098
161.06446        117.27910        142.70412
161.85626        137.16534        131.90618
168.40060        96.27582        127.67960
167.41313        106.98582        121.27331
169.76302        125.20677        133.14241
168.65524        128.05826        120.09291
167.19931        142.24398        125.85969
172.90585        107.33261        126.25353
172.43922        133.92505        108.14990
