53.08000        125.58000        128.08000
69.30068        126.02700        120.13294
58.08000        125.58000        138.08000
59.22463        122.06226        116.65913
58.08000        133.08000        128.08000
72.18791        115.95927        120.97571
55.34865        108.23735        129.14685
63.08000        133.08000        135.58000
72.84203        130.40296        112.82485
76.42858        116.84518        105.63690
76.39469        120.66249        128.79174
80.31543        116.70862        136.38673
73.99093        120.52221        142.70073
77.91234        132.48723        123.82568
78.40943        98.27072        133.38789
77.76640        102.87579        88.04914
83.74787        103.69905        94.87255
77.35300        101.32812        126.50133
81.67810        110.52994        120.97978
77.17165        111.33664        128.25325
77.31549        125.86225        117.88138
83.04505        121.50783        138.67268
83.07325        139.43020        110.23079
79.91931        139.39487        139.00556
86.63482        98.65334        86.93283
82.96258        99.00925        127.71389
83.70219        103.59097        84.40319
88.16647        108.39738        133.22089
83.65466        113.30653        84.08116
83.47559        114.50284        97.85012
83.60974        117.00980        110.70774
85.40470        118.07886        118.08096
83.87921        121.08366        124.11648
84.85760        124.17580        114.05184
86.61277        144.71827        140.22411
88.14194        94.57648        98.37140
97.29912        103.84323        119.30851
88.48620        98.43329        129.15715
91.76760        102.31868        78.76306
88.85752        108.62331        113.55157
88.54598        116.83613        85.86761
88.25582        114.87576        93.56840
88.41342        112.79227        108.05969
86.87648        112.64660        118.12109
90.01145        117.96492        147.87619
91.06305        118.48413        129.68122
88.41530        123.36580        128.09996
91.64552        124.10922        137.68983
84.47940        132.55359        140.43619
90.98688        140.67946        131.59074
86.95724        89.34435        87.69781
90.80188        94.94390        88.73320
98.18165        98.64544        93.59808
93.80534        97.06803        105.84604
93.41976        100.35694        88.01764
95.28328        103.09499        98.09594
91.86406        105.85140        83.24196
93.32737        109.97210        88.77726
96.26090        108.08462        133.06881
93.77766        114.59936        83.94518
96.32477        118.31217        109.83759
93.25265        113.48999        117.90858
93.86328        113.50085        123.56855
96.12996        113.59738        135.07495
93.49628        122.48882        127.92247
98.03893        131.27495        131.12309
101.08023        91.30754        113.90150
89.28725        80.26010        71.14142
98.58079        88.37334        106.12082
96.95596        96.48188        88.64198
98.03146        99.82261        128.82473
98.56632        102.37976        83.19817
98.24499        104.16329        105.81353
99.98275        114.74762        143.42750
102.92993        115.17370        152.31580
98.23285        112.19964        97.18045
102.82843        120.94098        84.17826
98.31573        117.77848        92.69758
98.13522        118.02462        126.18570
98.61592        118.16588        137.70622
97.91982        124.50460        138.03175
99.15273        138.66728        122.32455
93.17861        131.17931        64.67780
98.64751        135.99683        139.37956
101.24337        142.42804        132.91924
111.15245        83.11286        114.62018
112.01680        87.21873        126.61493
103.32108        90.18813        103.12835
102.13050        89.77696        126.68868
108.52264        94.57759        121.55796
106.55197        105.08888        112.81692
104.04457        108.44614        86.06224
101.59676        108.06940        108.38547
105.71972        108.21613        128.18404
103.63170        112.63949        101.58248
103.04188        121.16571        94.54324
103.36599        122.48277        108.81718
109.41495        124.46522        78.65055
101.01007        128.82357        102.15251
102.92204        128.30716        113.60551
108.62606        135.48029        74.68712
97.92960        131.18030        59.92815
91.28211        115.19265        79.26428
107.43135        137.35396        117.64959
108.54005        141.54591        113.69119
103.74685        139.95314        119.83596
108.29435        77.28307        106.83763
112.57082        96.47504        112.36916
108.34554        98.01366        93.14705
106.96722        100.49670        99.24998
108.79993        97.80779        108.30840
108.39539        100.35616        118.06949
108.51608        105.49442        137.73723
108.08163        109.61997        102.99117
106.53024        118.25139        72.68578
108.60383        122.62312        129.56124
108.60467        129.38743        102.02912
109.86803        129.89605        85.74278
107.43570        133.23785        108.58724
115.62838        140.36028        87.14186
108.75865        137.95927        104.99732
115.82146        141.99192        121.15658
108.64673        138.94326        129.45877
111.20099        142.59772        72.53940
110.85720        145.96102        115.26158
115.88114        88.44974        105.37930
115.61413        103.33948        98.87038
110.61654        98.71410        128.32194
113.29571        101.59739        132.68082
115.73272        105.41604        118.33727
113.42375        112.57529        108.65296
111.42495        118.04899        99.65184
110.45010        118.11766        110.36667
113.64729        122.61143        83.62549
110.47730        123.18171        88.34432
110.23023        122.95739        98.38094
112.79900        126.37995        93.37318
121.38481        135.01257        92.57199
112.56574        137.42822        113.42069
116.38001        147.16363        132.06890
115.50410        153.07787        118.04656
112.64829        152.64938        128.04782
119.51298        88.08558        130.53547
118.08000        88.08000        43.08000
121.17383        93.13140        119.09274
120.93236        98.46472        140.68316
118.27446        105.14603        110.15172
118.15887        105.26409        86.28477
119.36948        117.03112        67.71496
118.26717        114.93764        77.69012
121.51238        113.15418        86.47767
116.39779        126.45401        88.62421
119.85918        127.34464        74.37337
117.60641        130.89770        85.00309
122.00733        130.84190        103.19691
115.74746        131.50198        112.95022
118.45033        137.91531        105.36109
117.67578        152.17372        128.53365
117.96652        158.32983        126.52299
127.00092        83.56629        117.51590
123.13129        80.87712        126.32125
125.57299        92.69172        127.63810
124.55645        94.86232        139.13079
122.31465        99.62471        82.43429
123.25299        102.74570        98.51447
133.52838        95.74620        124.69018
123.22544        107.67734        83.99328
135.18787        107.83077        107.14239
123.27193        118.48318        88.47227
128.06171        119.38179        97.03466
123.58843        124.60120        89.09215
123.01214        132.33290        75.94560
124.39351        136.69840        107.86949
123.28759        134.01899        135.54708
128.07682        145.63092        111.70298
122.74056        142.48131        103.61541
123.78345        148.69177        104.39043
123.16817        144.53953        129.03324
129.14137        151.62496        119.58976
123.17999        155.85572        123.19167
127.90037        83.33191        123.49242
129.86428        89.02410        112.73719
127.87404        95.41736        88.15788
130.15237        103.30591        78.97411
128.06674        103.93181        133.28305
128.21979        112.02218        77.29125
126.40178        124.11970        105.62794
127.78289        122.63512        77.31701
138.10522        120.91652        85.79540
126.68715        118.07734        118.07734
132.27943        135.00045        109.74792
127.89965        130.30668        129.76362
131.90398        132.12132        132.91876
128.05152        135.93181        125.94879
126.35985        138.00585        93.30796
129.17165        142.00857        98.28114
129.79637        145.10755        125.58020
128.14362        147.78781        134.54870
124.70318        155.84653        109.40111
127.89906        152.82730        112.66676
131.86887        97.73344        77.13995
133.46539        97.69981        63.55978
132.32784        98.89994        117.65157
131.40892        105.91691        83.12621
132.27181        103.58874        88.22645
131.57353        106.52017        138.86798
133.15728        113.27824        74.91325
126.43000        112.02175        130.55474
134.07597        120.59702        101.18100
132.96821        122.83097        148.13184
132.92172        130.94461        90.40407
132.39049        127.89271        143.19632
132.69896        128.27821        152.79399
125.76402        89.35949        62.09179
136.02652        99.30267        87.16639
137.07887        101.53188        137.59344
138.10424        108.47097        85.78555
136.35745        107.95002        134.49816
137.63802        113.32208        77.71656
139.75222        113.18735        140.84243
140.93838        122.83437        128.73917
145.77621        129.60135        131.50012
138.21271        122.65222        143.10149
137.63742        122.83647        158.44203
138.18787        125.00024        97.50395
136.36091        128.20929        101.65050
137.95624        127.78299        151.31172
137.35593        135.64001        97.10279
136.24568        138.05522        79.58718
140.94008        138.14350        87.00252
135.40656        144.90016        77.40563
137.45182        144.06750        114.33739
144.15994        108.52270        137.44135
137.95325        118.47838        95.46212
142.87849        123.61399        137.74951
142.60373        123.13702        157.23903
143.68539        127.01906        97.92648
142.92931        125.35714        151.67978
142.35495        135.95710        77.56946
148.25047        112.70333        89.52868
155.74015        121.89288        138.18601
147.56961        123.58502        147.56706
148.08000        128.08000        113.08000
156.65143        98.08000        135.22286
155.58000        98.08000        123.08000
150.08580        108.27593        107.52620
155.17009        113.93412        99.07617
161.10283        106.21243        99.73254
163.08000        103.08000        113.08000
164.08000        118.08000        121.08000
165.58000        113.08000        133.08000
163.21327        128.33834        135.81494
168.08000        93.08000        133.08000
168.08000        98.08000        138.08000
168.08000        103.08000        128.08000
173.08000        93.08000        123.08000
176.41334        104.74667        118.08000
174.74667        103.08000        134.74667
173.08000        113.08000        123.08000
173.08000        120.58000        128.08000
165.81029        117.98187        127.55548
178.08000        118.08000        123.08000
183.08000        111.41334        129.74667
