72.49689        97.99206        71.35174
65.83023        95.96214        135.06987
62.57069        112.42945        132.60410
74.02077        117.69119        114.09935
76.28714        111.10356        124.00962
68.04529        127.46780        136.20725
68.39877        95.02995        127.10610
78.92919        106.61002        142.25358
79.16621        122.14635        127.83020
81.41334        123.08000        49.74667
77.49017        121.25115        113.30188
78.08000        128.08000        43.08000
92.54274        136.58603        132.82688
79.94946        134.06638        113.15213
83.08000        88.08000        68.08000
75.04844        84.09347        66.02239
89.95500        100.58000        64.95500
79.30668        97.85785        137.21270
83.08000        113.08000        63.08000
82.24413        120.97211        116.08608
84.15530        120.37145        123.11958
92.81284        127.29414        113.06506
97.87082        137.86023        96.88509
83.63702        136.52037        108.24003
78.04448        134.13083        96.97747
95.85778        70.85778        153.08000
83.96817        74.44219        141.13379
69.44961        61.88623        121.68255
88.08000        78.08000        163.08000
96.86187        87.66778        147.75930
83.70714        78.95505        150.22630
88.42195        92.32400        74.18132
109.36776        82.24577        134.62161
75.63609        88.53497        62.77090
92.06322        106.41512        121.55652
97.32710        98.46072        146.38928
88.65220        115.58844        126.12174
83.79228        102.80193        136.10288
91.58000        115.08000        56.08000
94.64561        115.94637        135.01026
82.40691        114.38570        154.97417
88.42586        118.13184        108.87155
90.40124        123.19960        127.99275
88.56726        127.81966        123.02747
86.85363        127.79816        104.65134
95.24555        147.75104        96.50442
94.86536        151.94712        153.74973
94.74667        59.74667        153.08000
95.58000        63.08000        138.08000
87.73344        69.92704        131.11983
93.08000        78.08000        73.08000
85.33001        72.21456        135.44811
105.48419        93.31242        143.96134
96.36116        93.68381        78.33074
92.50312        99.54967        94.25054
100.16322        104.06461        128.70539
98.78993        98.61990        137.16745
95.11571        102.82893        112.02876
93.08000        108.08000        68.08000
87.97777        105.18384        92.84758
93.08000        113.08000        73.08000
100.52531        120.47418        122.55001
93.73889        122.90051        108.85397
108.39812        129.32646        133.52670
89.76163        121.87804        140.17812
94.33000        123.08000        163.08000
93.58474        128.15954        121.32894
101.41334        134.19111        166.96889
100.99794        130.70782        102.83065
93.08000        133.08000        178.08000
97.70373        135.00840        116.87968
103.43120        150.25747        108.96613
93.08000        148.08000        148.08000
93.08000        153.08000        143.08000
95.02844        70.83729        126.38218
103.26566        83.55856        153.20725
98.08000        88.08000        68.08000
102.26969        102.93057        97.15006
92.73628        102.02107        78.81110
94.21101        108.01098        100.33557
98.05606        108.24171        110.18752
97.84139        111.35459        96.70748
103.25488        111.68692        119.59126
97.54427        115.08486        108.81907
98.08000        119.74667        151.41334
98.84876        143.64935        110.12166
98.08000        163.08000        148.08000
98.08000        168.08000        143.08000
103.08000        58.08000        148.08000
103.08000        66.41334        144.74667
104.45405        82.73108        122.76745
97.03299        68.80279        134.22769
103.37745        95.77973        121.55283
109.47228        100.16194        62.93907
106.09175        102.98253        107.40956
108.28952        102.08593        121.73154
103.08000        108.08000        78.08000
105.94446        110.38367        108.96549
103.08000        113.08000        58.08000
98.00678        113.39370        131.07178
97.93473        112.18530        55.18013
102.95869        118.25179        108.70274
110.29289        118.17664        99.37202
103.08000        123.08000        158.08000
103.08000        123.08000        168.08000
107.47638        132.04528        108.53041
103.58974        142.33965        108.79057
102.76305        151.18961        103.03564
103.08000        153.08000        133.08000
110.39418        157.29398        133.59590
109.10649        158.48265        147.42004
104.08000        171.08000        141.08000
108.08000        53.08000        148.08000
108.08000        58.08000        133.08000
110.59833        89.48238        126.90030
107.85815        88.16009        132.52615
110.22663        88.40683        153.56974
113.07857        100.15302        113.12986
108.22925        104.53610        74.82508
102.25399        107.07716        50.13115
114.61247        119.44845        67.09058
114.82719        118.36804        86.54866
109.98465        124.83732        92.96733
107.71797        137.86893        107.95806
111.26182        146.26182        155.80727
107.65448        151.42064        98.39741
110.79707        147.17002        106.00704
107.25229        154.88641        143.07639
108.08000        153.08000        163.08000
108.08000        163.08000        120.58000
111.35330        163.58669        158.66677
108.08000        173.08000        153.08000
108.08000        183.08000        150.58000
113.08000        53.08000        153.08000
114.50857        61.65143        139.50857
107.42947        59.92804        121.67957
119.68683        72.07888        121.28198
102.06748        61.45094        129.14539
116.03734        77.75945        128.51748
114.33000        73.08000        154.33000
113.23531        81.37234        123.08126
116.58011        92.07799        138.04443
120.80727        90.80727        167.17091
118.88917        105.35356        54.19346
114.68101        104.29314        98.13418
115.68146        109.90199        117.01357
114.49458        120.83724        74.42708
115.84696        124.66258        112.00508
116.16666        128.29980        88.47351
113.09536        135.80023        96.68549
112.61172        132.82350        113.67611
116.41334        133.08000        154.74667
122.20250        130.81145        120.21496
117.25822        151.62283        111.48136
112.71336        143.25216        114.21232
113.08000        168.08000        148.08000
117.08000        177.58000        143.58000
118.08000        65.58000        163.08000
120.76206        79.46107        118.66386
119.27854        88.43494        113.64651
118.08000        88.08000        178.08000
116.37310        93.53101        127.98576
132.30760        103.67175        145.89196
117.63747        99.89078        104.55983
118.26335        97.92700        123.58443
118.32581        98.18891        133.10722
111.77433        97.50673        153.57048
118.08000        103.08000        68.08000
117.83774        107.95972        101.17706
117.97095        108.78418        108.29024
117.97979        108.11902        137.46529
124.23699        111.58588        155.11009
118.03140        113.31158        103.07823
118.01212        122.56698        83.68683
118.06686        125.72617        96.26249
123.83046        133.91762        108.06607
118.08000        138.08000        163.08000
121.76831        141.11171        137.34483
112.17730        150.17768        126.42731
122.99508        164.81342        142.67430
118.08000        173.08000        158.08000
123.08000        63.08000        150.58000
105.14151        65.54464        122.57235
123.08000        73.08000        148.08000
124.72104        77.39898        113.10563
129.78733        84.18071        106.48521
123.15116        83.53246        111.07671
123.13575        86.03529        122.84768
122.83266        97.72405        100.85018
123.10722        96.56404        111.73931
122.66996        95.25931        138.74933
123.08000        98.08000        58.08000
122.88863        98.28703        117.98344
124.03499        105.88023        106.60998
122.69711        100.70942        122.73148
125.38105        111.57775        144.92736
127.13316        111.19422        77.65832
123.29240        110.05955        91.83794
127.69869        120.53505        71.41810
123.00530        116.03073        78.87574
126.36731        111.06324        124.71295
122.44524        114.66329        137.84528
126.72640        115.44069        98.10987
121.49293        119.86925        103.28683
121.31947        120.28195        122.85034
123.67431        125.71562        91.09922
122.74073        128.26457        98.47460
134.09212        129.75104        141.01706
131.08034        132.84694        132.37179
121.44090        133.52040        78.57649
123.08000        141.41334        154.74667
123.08000        153.08000        145.58000
114.65346        150.77269        133.12646
123.08000        162.08000        158.08000
129.02970        161.93280        125.79208
128.08000        68.08000        143.08000
128.08000        73.08000        148.08000
129.33000        80.58000        156.83000
127.93406        84.03590        121.21230
134.60919        88.50493        62.40069
127.92522        88.91732        119.71957
128.30812        89.24313        134.41714
127.53336        93.26022        108.73456
122.84829        94.08687        65.31828
128.09058        98.95815        95.32872
128.08162        98.13955        140.39789
126.84483        104.65732        62.50973
128.97635        105.65647        99.55930
128.51484        101.65410        113.25092
128.40715        102.96435        132.24594
130.06357        109.86711        135.65517
128.39743        107.86881        147.39693
132.21091        124.05717        101.02888
129.88276        114.20294        120.61944
127.86993        118.40925        130.82680
126.02337        123.95493        64.14457
133.06265        121.52148        149.53705
124.57400        135.38158        87.23636
131.16978        134.77595        95.57541
132.29808        137.44705        82.69824
129.33000        144.33000        158.08000
118.08816        131.57999        57.80158
134.98407        146.03430        86.54650
124.23093        145.12796        78.71902
133.08000        156.41334        152.52445
128.08000        168.08000        158.08000
133.16312        76.87592        112.89423
133.31062        83.64535        121.06116
136.56797        85.02220        137.95790
134.56659        90.01372        98.23151
136.05356        93.70877        144.73867
137.80698        98.67382        100.63549
133.47062        98.31890        120.08799
133.13387        98.50312        130.40200
133.26019        97.97099        140.65756
132.85416        111.16122        155.68616
133.08000        108.08000        48.08000
133.08000        115.58000        53.08000
134.05500        121.37117        125.49672
137.69025        118.99336        136.89972
134.49201        131.09057        75.08331
132.82124        127.71603        126.49422
132.85325        135.73966        106.49621
129.93618        133.33260        117.67565
134.50880        146.75895        68.75626
134.74577        150.94962        131.49550
138.08000        78.08000        153.08000
141.82445        90.27670        111.11757
140.49112        83.39048        113.13408
138.06113        91.43494        93.31591
137.32175        88.15007        130.03468
133.65832        93.01498        118.40722
138.08000        103.08000        54.33000
139.86587        108.47234        123.54837
141.13860        127.56820        148.36661
137.20598        127.32011        88.04028
138.50305        126.97279        104.75103
138.08000        133.08000        58.08000
137.92896        132.85011        86.00707
137.81840        135.23056        93.34879
143.19396        132.64792        116.20549
138.68890        135.52872        81.37606
138.08000        148.08000        63.08000
143.08000        78.08000        58.08000
145.52449        93.25595        138.07112
143.12053        97.49765        104.43362
144.47295        100.21356        137.77157
142.63385        98.07540        142.85304
143.08000        103.08000        48.08000
142.50278        103.25211        107.84045
142.41715        103.80271        149.35608
143.08000        113.08000        53.08000
142.88327        116.10817        150.82002
142.26686        130.05483        130.08462
142.29275        128.69499        77.96518
148.08000        73.08000        58.08000
148.08000        73.08000        68.08000
147.75546        88.55846        101.17005
148.18366        93.54121        98.75505
151.61358        98.38169        108.01152
147.56227        102.19565        126.58601
147.27898        105.14542        95.73266
148.11223        103.25993        142.32804
152.42100        112.48814        126.26791
149.10206        110.08645        140.13167
147.11783        106.46395        147.22559
147.64368        118.17132        147.81709
147.45937        126.96748        136.08293
148.18234        127.61229        142.86620
150.37305        117.77140        142.42315
152.53626        124.70058        129.86090
152.69452        125.73174        140.50671
158.62528        106.60223        129.90638
