90.99558        109.77007        234.68018
96.04106        102.67396        250.33864
96.02746        111.57710        230.30356
94.78811        111.04614        239.23345
98.28636        116.65128        215.23764
100.64786        94.03223        254.66335
99.96387        94.78178        249.87090
99.89897        106.54977        230.52406
104.58363        119.99076        209.39985
99.81046        119.03801        220.33632
104.60769        128.66109        218.27211
99.95646        155.03462        84.19303
101.79869        188.18043        106.91418
102.88378        199.90333        111.55793
104.98623        94.89730        239.94441
106.42555        96.86704        249.79506
104.87067        100.23236        244.41408
103.96718        105.19627        244.32106
104.83222        110.23787        225.52223
105.20039        110.01333        239.30431
104.79846        108.11105        250.04370
105.18692        112.78769        214.91000
109.90558        119.06115        220.38449
105.30445        161.45839        134.20371
105.18432        185.94879        134.80923
111.95793        208.46812        111.74996
108.11019        89.29830        245.22275
110.09130        99.85785        234.59799
109.85139        100.34708        255.29442
108.30563        127.55489        210.11989
109.87141        125.49815        223.97408
109.43607        134.53861        212.90221
110.34955        139.58087        214.92314
110.05852        151.39801        120.29636
109.82072        154.84451        125.24918
111.67246        162.88360        130.08450
116.05637        170.96605        127.20072
111.12440        186.45974        92.04211
113.96171        191.01417        96.50603
110.28077        190.29736        117.10487
108.91435        189.56873        134.74847
110.56947        194.59985        100.11720
110.51266        196.67413        114.53361
111.47932        195.22705        129.40576
112.71914        199.94575        105.05505
111.57833        199.89204        132.38136
113.96700        207.20270        124.90642
121.31095        215.27708        113.72222
116.92666        99.36715        247.71289
120.35817        105.57766        111.55360
115.24564        115.20483        225.11877
116.77073        122.40884        210.26762
115.09236        128.30602        220.96635
115.28000        139.37642        144.60098
115.54218        133.36090        160.35182
115.10632        136.72208        221.81978
116.35484        145.99741        125.67254
115.00621        150.72565        172.06945
115.67684        149.47160        129.83019
115.30959        149.61780        165.48979
115.14387        155.35735        102.75387
115.00658        154.79239        110.01885
115.23000        154.95834        120.44601
115.25706        155.18596        132.05668
115.63422        154.58287        144.42793
115.40473        160.95233        117.17905
117.79899        159.18675        144.04653
115.68525        165.17499        120.31797
115.25619        170.43700        134.90141
115.15458        185.46079        127.68453
112.80845        184.90015        139.90556
115.23955        189.71803        110.33197
116.30278        198.72932        120.78495
115.34586        199.69952        94.62238
113.94391        198.44881        110.25508
116.20457        212.93666        128.74613
124.12930        92.51878        103.84450
120.55591        95.49232        117.25262
119.44987        94.71630        233.45695
121.51827        99.95618        109.98757
132.50439        106.83939        94.27820
125.43948        109.95369        99.53870
120.81252        107.90375        120.19430
124.94850        107.97562        124.79939
122.62951        110.85624        244.93319
133.37071        120.53613        97.62922
120.11969        115.01707        111.88530
120.15188        115.72281        224.02303
120.24326        119.30860        220.43780
120.44875        125.72401        149.60149
121.43967        129.10401        163.90301
125.01865        127.08527        205.96333
120.37905        124.36015        232.17609
119.10159        130.95308        138.49154
118.13571        129.73982        214.91765
120.11742        134.61839        134.74930
120.07867        135.02826        210.42020
123.94147        135.86143        220.33680
122.33103        140.42801        154.91628
123.40053        142.29453        205.02018
121.12604        146.32856        149.05600
121.69298        154.15546        124.69805
122.08511        153.01669        170.79780
124.22736        150.19607        186.40252
124.48481        150.06590        200.63934
122.24039        156.85393        99.88527
120.31013        155.27209        134.75824
123.17097        158.10205        178.74638
120.83664        160.52662        109.89668
120.35525        161.10072        119.88881
120.06691        160.19061        133.33394
120.72731        165.19202        132.16735
120.54176        165.03030        160.38495
120.30160        165.48132        184.22168
119.08778        167.23171        100.21295
120.57360        171.94788        147.20974
120.20662        175.44299        139.38292
123.90265        184.43324        119.32250
122.04034        182.49477        129.72415
120.34213        186.78199        94.95425
120.15336        185.07857        104.79803
119.98469        190.71372        107.79725
120.36451        192.38904        126.20459
123.42429        202.74229        98.53044
119.11661        200.03748        129.41327
120.76668        199.80373        243.90289
120.17870        205.48839        110.17393
120.02885        204.84817        127.18616
120.65340        206.28860        244.38870
120.51112        210.18565        94.73981
125.62376        212.26014        98.50950
120.44092        207.85955        120.24425
119.16930        212.87113        244.77422
119.95344        220.13715        125.29827
127.91680        89.78017        110.93729
125.31232        95.17388        109.85838
128.26516        95.45120        122.03187
124.04600        99.97847        104.92720
123.01567        104.80495        100.22849
127.93933        105.67956        243.06081
125.39362        110.51582        109.95361
133.12429        116.87305        225.69813
124.23204        122.42329        144.27731
125.24933        120.17374        220.02719
126.51086        127.83661        158.08872
127.80993        125.21129        214.97681
124.98621        125.42363        230.14430
125.51865        125.66386        239.31244
124.10129        128.27051        99.86558
127.33726        129.55157        149.23411
127.93382        129.54905        210.36827
125.53779        134.76305        148.62369
125.73479        134.64917        165.10147
123.51806        137.18042        215.45193
127.50470        139.40143        144.86944
125.52008        145.04659        89.57668
125.43269        142.58379        134.73474
125.23917        144.42310        139.79329
131.23990        149.05798        179.51442
129.22955        145.65945        199.78810
122.51966        150.12424        134.93317
125.82522        149.87129        143.46217
124.96433        148.53316        194.56937
126.19749        155.74879        144.79362
125.11895        154.71442        153.61937
125.04990        161.41237        114.77439
125.32103        161.72951        169.84715
131.69210        161.21437        191.85514
125.24834        165.52107        129.90590
126.45691        167.95256        209.41204
122.94789        169.36276        94.99596
125.49869        172.99991        126.14442
128.01579        170.03266        175.46360
126.73833        175.29607        137.91194
129.16542        170.02590        194.92794
123.08857        186.01765        100.00646
125.29755        184.43887        104.87946
129.30176        181.10770        111.09991
125.66857        183.52984        139.47322
125.26045        193.17553        95.84435
127.21120        191.21071        104.85969
127.98743        189.34063        138.36382
131.80871        193.46312        124.86771
129.73362        194.98952        249.86759
128.88944        201.53718        132.81759
125.01927        204.62186        112.79131
127.09584        209.85389        129.25258
125.38627        215.18892        250.02162
125.95905        218.91596        120.34851
133.43065        97.74909        104.40555
129.97148        94.78139        115.34333
129.31488        99.65273        109.78891
130.79234        99.89480        115.52910
129.19913        105.18126        115.16114
129.46802        112.83175        115.51307
133.66959        115.63112        121.52841
129.39043        115.74673        152.33603
128.48911        115.23035        249.45720
129.06987        120.23289        154.98111
129.67038        120.37189        194.75337
129.69216        127.50725        201.10071
130.78213        129.92519        225.48313
129.52135        129.71021        134.61084
129.65486        135.79191        158.34523
129.28626        134.62032        168.89113
130.50789        139.73660        88.86218
132.65322        139.08765        141.43897
128.16774        139.98927        160.29301
129.05057        139.25638        175.17271
129.38232        139.59899        182.61301
130.04016        139.84904        200.11897
134.22870        138.35871        209.97447
129.84970        137.26836        230.33252
130.61002        145.88000        155.03535
129.48506        144.77698        163.90491
133.83092        143.58624        219.93068
132.05103        150.17203        141.49101
130.67122        150.10764        194.34207
133.26323        150.55679        214.72248
134.35061        156.25207        109.82858
133.99173        153.31722        120.43154
134.18274        157.13199        207.74768
128.55793        155.01827        211.99781
129.32739        159.70187        83.45444
128.08264        158.64417        95.27646
132.32291        158.92342        180.36582
129.60659        164.50784        133.85618
128.58849        164.19389        158.40981
130.34174        168.31931        199.70702
129.57823        170.36951        170.15645
129.27931        170.31577        183.34803
129.99048        183.39944        226.31299
133.43004        181.73838        136.47152
130.92873        180.45798        144.82689
132.64712        182.27332        216.98909
128.19315        189.58951        90.11912
129.46011        189.93582        100.01330
134.50392        188.00142        156.46062
129.51975        194.96661        109.99593
133.87843        195.57903        132.71417
129.51898        199.81296        113.20242
129.55458        205.18108        249.67113
129.54573        211.58969        104.79770
129.82382        210.15909        244.81303
129.15216        214.77831        235.73918
129.53242        215.01324        257.98441
129.72279        219.94388        249.78682
129.58957        223.98290        263.92386
134.96288        98.40977        125.68197
135.90672        104.77538        124.33744
134.31532        115.30547        162.84603
134.13324        120.46850        109.90910
134.50973        121.80523        129.59099
134.48990        122.61964        145.27971
136.01271        120.23152        230.45090
139.09321        124.92752        122.10611
134.43190        128.51175        134.67003
134.53206        127.56540        150.22781
134.64875        126.79447        218.57485
137.78104        127.32625        230.42358
134.34431        125.43212        244.72351
134.81276        126.03534        106.28653
133.34760        129.05504        129.70390
138.03644        130.90283        139.89542
145.04767        133.26681        186.43409
135.01289        129.06850        209.79401
134.86420        129.39217        239.98401
134.39720        134.55553        158.79004
134.53682        132.69532        165.09636
137.12596        133.67047        199.68300
135.60797        134.40689        214.88545
134.73752        134.67159        233.46162
134.57939        142.30226        182.49223
134.58229        139.88760        204.85808
134.58723        144.47839        125.43093
137.17664        145.27002        136.93895
134.50552        147.29255        150.06954
139.27241        144.62767        169.52404
134.28380        144.52225        190.15866
134.46002        151.36558        125.26012
134.68468        149.87094        204.87224
138.64009        152.17340        115.23867
136.90314        157.49937        134.69311
134.68556        156.15863        163.78816
134.40927        156.21164        175.49821
142.44018        156.27884        125.58171
136.12511        158.82254        139.53751
136.81005        159.63773        144.71426
137.09340        160.38282        149.92771
136.47674        161.05505        170.01735
134.59704        159.04078        242.23149
135.89697        162.72303        155.08463
135.27253        168.96698        165.38039
144.45338        164.19402        182.64589
134.88014        166.43574        201.36500
139.65649        172.72289        189.12162
134.25653        175.55878        134.66895
138.93692        178.82631        144.47626
134.83879        179.60916        149.91162
138.98052        174.54962        220.98518
134.81306        180.44002        191.73073
134.94792        179.41284        234.44285
134.45235        183.45636        105.39983
136.31490        191.16583        111.33951
133.48139        184.71866        128.22783
135.12675        184.92937        245.79161
134.73778        192.14134        164.89273
138.36183        189.55211        233.31623
137.15948        192.57646        97.81639
134.80191        194.91461        159.77217
134.31169        192.43262        230.51743
134.27472        195.02731        244.97165
135.75509        199.81236        102.48821
135.82795        199.97052        250.89609
139.97582        205.45661        102.36466
134.30322        205.34524        111.23204
134.79190        209.97620        104.64697
134.35449        214.99574        255.00285
134.60970        211.82889        260.47415
137.03287        219.01601        239.92396
137.83270        223.17979        259.74161
139.69656        91.04210        105.29208
142.21194        99.13912        124.81484
139.71686        104.90404        89.37416
139.35716        105.08348        114.21672
143.07059        110.08615        105.17423
139.43617        112.72660        120.25664
144.53675        116.87821        90.42945
139.80365        115.11793        104.61545
141.16540        115.52801        127.51722
140.36529        117.39869        134.47771
139.93951        120.10165        214.80771
143.34479        118.12812        220.49939
139.42047        125.51381        115.23724
140.30865        127.50164        134.47166
139.70830        127.13568        106.10404
150.60071        125.76343        132.94025
141.58341        129.58815        151.48467
138.37699        134.69054        149.55284
140.15477        134.45461        204.76456
139.79471        133.41829        220.48613
139.70451        142.65078        125.52274
142.84838        141.85689        149.96928
141.62694        142.27490        189.76490
140.02704        141.61806        200.98116
141.84039        144.28052        157.92224
141.78631        144.66944        216.40522
139.52446        150.06074        195.58367
143.58403        150.80631        207.68917
140.07253        150.34673        209.99011
139.99832        155.17435        164.95663
143.46340        153.60228        176.18812
139.90346        154.69853        180.82799
139.00341        155.88116        215.32836
138.21685        160.11191        175.05232
139.27774        165.27016        203.64739
138.36063        169.88271        161.47157
136.23740        176.91459        129.56657
139.54108        175.35019        230.68626
140.01952        176.52069        244.78244
139.74468        182.79510        155.07329
139.43978        182.80558        220.33110
139.64377        180.66797        249.44974
139.59663        184.69504        136.78831
141.89896        189.75929        136.88954
140.08710        190.70230        152.28269
144.24888        194.93459        162.34376
140.97606        188.30177        203.90853
139.74431        189.56841        239.68988
138.32031        194.92825        104.73319
139.44336        195.16492        229.06262
139.44496        197.09840        254.75988
142.75095        201.23521        149.53840
143.88726        209.38446        224.92178
139.74948        213.92192        225.23132
139.56935        213.97033        247.27737
140.64102        217.03469        230.80458
145.01411        90.00419        107.65783
145.01575        94.61338        104.71440
144.84674        100.22516        110.00723
144.82648        104.98637        90.09490
148.49911        104.94595        94.54860
144.51157        113.61025        117.61419
144.56151        120.61116        80.61436
147.45247        124.42105        111.64254
144.98059        119.14848        125.98691
145.43226        120.36254        137.36786
145.21599        125.50954        144.48711
143.69644        129.38988        215.25549
144.33248        133.22173        103.80869
145.80320        132.38070        142.05538
146.37064        141.76910        128.82824
145.95659        141.18298        139.74911
144.85793        141.18552        144.97122
144.86119        144.91563        200.01480
145.43835        152.34215        138.43625
145.11103        152.62987        144.83305
146.86227        153.32058        156.95148
144.97377        149.96274        225.55444
146.34128        150.03275        234.66870
145.14583        150.96584        244.43996
145.30527        153.57126        149.87689
146.00675        152.51230        167.34872
142.39807        160.54372        184.64362
148.24936        162.28188        211.04336
144.63748        164.85553        195.02621
147.50511        174.64442        129.12844
145.11726        170.45708        196.23805
144.85498        170.23038        211.00688
145.09258        175.80121        195.05417
144.41277        175.29617        200.12367
143.61789        174.22442        205.20640
144.69867        175.92554        215.31824
145.80653        175.34734        227.04831
148.64180        177.56219        233.62535
147.65054        183.72305        149.00515
144.91313        180.66234        209.99161
144.83623        180.30853        225.32912
143.58022        180.03978        244.96509
144.94190        183.47068        163.17569
145.57441        184.79984        171.29710
144.81540        184.78384        205.32565
144.85793        184.97807        244.58919
146.23878        189.43806        83.58812
147.87589        188.09053        210.03467
143.43195        189.57330        219.96783
144.95029        191.15053        234.59020
144.31427        194.13709        142.64062
148.12408        195.08671        154.34315
148.94346        191.70950        170.64685
144.92202        198.17170        218.71348
152.23811        204.68416        227.33436
150.30603        211.52991        216.59128
144.51503        214.03403        219.84474
145.20082        221.12405        235.04567
145.30905        225.06468        240.08711
147.01957        222.11716        244.91424
150.23833        103.43933        112.23480
151.54134        100.07679        130.99147
151.16685        108.57166        124.13369
151.18271        104.66527        135.07690
149.98114        109.93243        92.50331
150.68682        109.79990        106.33755
149.86501        115.07916        115.30831
149.82908        116.41852        133.13180
150.00050        122.80185        104.88138
150.07275        120.44267        124.36357
151.16957        121.16869        207.84964
149.97550        127.67333        164.30658
152.29318        124.29728        170.24840
153.53379        124.82242        175.41784
152.25150        124.55698        194.72858
151.17023        131.39069        199.96968
151.88598        134.43099        161.86549
153.26884        134.84267        175.56534
149.56880        139.72275        94.42437
148.44806        141.75104        135.35891
150.03216        139.85959        193.92213
149.90228        146.32450        180.11619
148.63927        144.07492        210.42139
150.24704        154.82693        230.37642
149.55135        154.98085        249.49509
151.11978        157.70076        239.72379
152.71910        165.32185        194.88882
150.27647        165.15305        200.41577
153.63088        164.67068        219.62578
149.74231        171.39251        149.99861
153.45503        170.78754        158.76020
150.83923        172.65308        168.21132
149.70009        170.45256        190.93851
152.35206        175.84161        139.61591
148.63251        172.94814        145.06065
152.08843        173.13909        175.22591
151.04817        176.40856        210.05814
149.89200        180.71226        89.40564
149.98987        184.48470        160.41393
153.43474        183.52276        176.91045
153.76029        184.72265        220.14803
148.80361        184.30531        227.40840
152.56231        189.51241        137.95765
152.49792        189.87663        150.66708
151.04296        194.93158        220.12548
149.02728        195.53511        236.03983
152.58747        199.48306        142.24080
149.44484        214.14311        124.44881
147.82859        219.48877        230.81458
147.62472        219.31441        239.21964
155.00539        105.37939        89.95507
152.63584        115.40631        122.95620
167.41935        119.13209        129.26245
156.39720        121.25997        206.48251
154.07433        126.26376        183.63836
152.82098        125.05862        189.72807
154.59753        129.83336        164.75685
155.38712        129.76344        195.08742
161.99887        133.40074        209.21565
153.68436        134.97229        180.74911
156.56248        135.89442        215.40558
155.01607        138.40325        170.23367
157.72758        137.43966        191.57690
155.29607        144.09337        244.31907
159.90523        147.62289        172.54088
154.87155        144.69659        184.95763
157.05833        144.84514        209.89740
153.75192        145.96730        230.25985
154.69980        146.10365        251.33517
154.64316        150.31651        235.08171
154.59212        153.77872        253.61017
155.62011        162.91903        167.76478
157.98090        161.86070        209.76115
156.40229        159.85468        214.82707
155.26431        159.98651        225.43703
154.91328        157.62551        235.09296
157.01724        168.36512        134.65492
156.08334        164.98699        150.10081
155.24768        163.71990        160.01907
156.35347        164.97032        177.70900
154.87856        165.32292        205.44157
156.05656        170.85036        124.54665
155.50696        167.02798        140.01398
154.82634        170.03514        208.66742
154.42804        171.61661        221.27081
154.97098        175.63455        115.19046
156.99433        175.46124        136.57485
155.10429        175.83365        144.98593
158.11589        175.85157        152.10843
154.05132        175.91619        182.50118
155.13350        175.20493        194.55060
157.78546        180.37831        156.83308
155.34064        182.77922        164.91315
160.80310        182.17807        172.32994
159.47526        174.98219        203.14670
154.70094        181.75906        224.17276
155.26755        182.41782        129.31969
155.23180        183.36540        189.43228
157.18193        189.40524        210.23598
154.97549        189.71347        215.05672
156.30449        194.83853        157.94112
153.75002        194.56307        227.30140
153.71712        198.62308        155.21300
154.67755        199.77898        165.29672
153.58955        199.53426        220.05911
156.99517        98.62957        102.28610
160.37004        110.28549        172.45212
160.04599        115.65790        129.30232
159.63402        115.39124        134.43613
160.62419        115.25087        176.69891
162.61120        123.47829        184.78347
158.29308        118.73987        146.53574
165.29933        127.54929        166.72884
160.14815        129.70398        134.44438
160.42969        134.46484        138.26845
158.89360        135.97282        155.14635
161.71158        138.40215        167.17292
159.96623        134.77257        180.06413
159.99396        134.75789        219.05110
160.12193        138.63196        149.98616
159.82133        139.67782        212.73497
159.71062        144.79964        129.28304
166.50019        150.21817        123.34565
161.45786        150.57421        149.99186
160.60177        150.06405        155.10577
159.84306        151.35165        244.59361
159.76212        150.37999        249.57976
163.51280        156.63968        180.12884
161.51651        163.32966        214.96627
163.38419        167.60407        126.44873
159.77010        165.07816        154.84695
160.16595        170.20320        144.92220
160.07072        168.83704        165.13882
160.06750        167.10757        183.45593
160.59605        171.62686        189.89368
159.86821        170.13901        194.68959
160.09496        169.92688        199.68913
161.74981        176.55496        181.89998
159.84462        173.21016        219.99052
161.71581        179.75745        120.42137
157.77388        180.27162        133.22215
159.92255        178.26798        144.93979
160.10388        180.74525        189.34345
159.50922        183.30886        209.77871
161.67866        181.72446        194.90368
157.75197        188.45740        144.62199
159.97310        195.45125        149.31995
157.98429        190.00651        158.86333
160.36015        189.57610        215.50206
159.83473        193.37927        134.23833
156.88517        194.66856        139.36557
158.08051        198.90404        170.06004
159.85097        199.68301        218.53647
165.30267        115.16052        131.40974
164.23824        114.98797        199.95486
164.82858        120.30713        159.80809
164.97275        124.34680        94.69862
169.71264        125.59486        105.25462
164.74857        125.44041        179.21825
165.09703        129.18721        130.76924
163.88521        129.69514        155.28572
170.68990        134.98287        95.21372
164.86885        134.91586        170.16998
162.74787        136.11693        175.14983
168.08561        136.98904        219.39044
164.94852        138.73904        85.68861
169.14442        141.67412        120.48694
162.84002        140.81662        134.61798
162.88701        139.93384        139.62413
161.95473        139.68613        144.92355
164.45709        144.89003        194.82963
165.34506        138.44200        204.96129
163.29426        148.66329        145.03723
164.53647        144.46221        160.13417
164.84183        144.88336        205.07442
164.07848        150.05647        134.57912
163.47672        150.87795        139.92039
163.82118        150.04779        180.32918
165.19437        149.83644        200.27417
164.11706        152.39616        210.15124
165.09887        151.49165        159.80099
165.27795        163.29813        189.63119
165.32823        165.12418        169.02699
169.42452        164.73385        174.15160
167.25823        165.18262        195.85057
164.34714        167.82253        220.52859
170.05180        167.54310        157.74188
164.99457        170.74763        165.12769
165.26147        172.08820        170.57729
166.73027        170.04515        195.08829
167.02229        170.54055        209.27403
163.79996        176.74743        126.63623
165.33108        171.95012        134.98271
163.96532        181.56449        143.49907
165.13205        181.00162        200.07156
171.94188        195.76156        128.67395
164.82065        188.44066        139.35963
170.14287        190.37882        146.98875
164.55654        189.70879        221.69819
163.48370        194.78342        217.82509
169.88963        119.91944        103.65864
170.71434        120.85001        115.34976
169.97780        120.57027        120.48025
170.01594        127.27217        119.81229
170.42186        129.87866        141.19107
170.33809        130.57271        201.57622
172.15330        136.51160        176.04428
170.25410        137.85684        193.96835
170.77872        140.81666        144.48700
171.71738        139.85097        149.96953
170.59148        137.38364        199.80167
172.38129        146.25675        135.06560
170.11821        144.55860        152.20891
170.35805        148.76928        166.89135
171.44699        145.46035        205.00807
170.49164        150.93338        157.25715
170.32397        149.46037        189.95448
170.55977        150.22401        198.09971
172.90981        157.62566        130.87232
170.77335        154.80577        144.57607
170.55043        153.63706        149.70837
170.16137        155.52621        184.02247
170.26468        155.29771        197.07572
173.73114        161.32865        204.24283
169.99844        163.96000        180.48593
168.08470        169.25179        182.22304
170.48173        175.72847        166.47734
170.80816        182.69780        188.90704
169.64335        186.54725        94.95321
168.87291        182.24923        156.05727
170.59720        183.25168        177.77545
171.28157        189.34251        101.40996
174.28398        120.58924        100.79421
176.77887        124.97754        106.32161
171.07764        125.54711        175.58125
175.36014        129.83427        99.89212
178.98225        128.27127        127.58421
174.97411        129.60121        134.53790
179.12837        129.82606        147.77638
174.11679        130.70554        184.88258
173.24642        130.72565        194.81218
175.04379        134.97353        141.84062
175.67491        134.88017        154.53323
175.51859        134.14122        207.65036
177.35031        139.81741        160.68793
181.77382        141.55488        176.57660
178.26279        141.76062        197.01208
175.16211        142.06662        213.72148
178.34297        139.54102        230.48973
175.59544        144.46601        232.53814
176.66717        148.62200        125.76913
173.08586        150.43135        210.01804
175.55650        150.22520        221.73105
172.32898        155.51550        139.85544
175.64819        155.45450        186.04252
175.09144        157.86993        145.14137
174.97516        162.92000        180.43315
179.79792        167.38677        186.55286
175.66204        166.85408        83.78645
175.56422        172.28325        189.93306
175.89371        175.15337        109.96172
174.04471        175.40588        134.87398
175.28757        174.24849        160.45757
175.03100        176.39061        170.20473
175.24068        176.93178        184.44961
179.81382        180.97351        134.13270
175.72694        186.74421        110.33877
175.30434        185.00126        122.35535
181.78934        192.85138        133.58684
182.71691        120.44023        121.79408
178.20926        123.37724        171.19494
180.24350        125.72364        95.13488
180.36737        124.19972        110.00730
180.42145        125.39005        214.83548
186.33974        124.12417        222.10377
181.72355        129.95011        208.43630
180.29544        136.10854        139.83904
180.48984        135.12595        222.96027
183.15358        139.73687        137.70856
180.72469        139.76402        144.40202
183.87797        139.61927        208.67256
182.64386        139.94080        225.47369
184.70547        144.62755        134.46593
180.82941        144.58179        140.01399
184.56216        151.82075        214.10916
182.82217        144.86069        224.66158
180.29065        150.15565        86.18527
180.53696        148.43211        144.93700
182.16476        150.47332        150.05246
181.22935        150.13209        192.87020
178.01224        150.00754        200.15051
182.79285        149.95157        220.92839
181.81747        152.60533        230.86754
180.32714        155.79069        217.15242
186.50429        165.63446        142.88160
179.02441        158.66983        189.59109
182.53550        164.87782        129.87766
180.63824        165.06325        166.55122
179.83161        166.03864        197.50926
179.41904        168.89284        170.41431
180.84079        170.20473        175.53680
180.88206        176.60261        129.39375
184.31832        176.82822        139.96129
179.84439        179.47437        200.00073
180.77666        187.56814        104.84172
179.14548        189.75694        120.19379
181.98934        189.10976        129.70407
180.06052        189.52312        169.13223
179.45189        193.70700        104.98655
184.34396        129.32118        125.82482
188.74892        130.99226        144.13583
184.15436        134.40978        129.55951
184.48952        134.72876        156.06815
184.73152        139.90169        148.69082
187.10242        140.26138        241.94910
184.98921        144.58322        162.07992
184.67857        144.46829        204.94521
184.78639        146.06644        248.44742
183.48233        149.65202        162.60651
184.44695        150.33987        239.39975
182.30568        149.49452        244.79932
187.50306        153.16095        141.95331
184.35986        156.38557        155.01081
189.04701        160.00588        126.53850
184.45354        160.17166        150.31718
188.78488        166.85496        113.76835
184.73587        164.96230        136.61016
184.53731        169.88849        204.83905
184.23909        175.17824        125.75793
184.93736        178.14763        153.58025
184.19852        180.16156        159.98625
184.37212        180.35931        180.91435
187.27141        184.35694        129.39417
186.05647        184.69226        138.35538
184.82350        189.95529        139.59473
182.35679        192.39768        115.10777
192.09318        124.35778        210.34538
189.85435        122.99634        214.82207
189.75663        132.63761        215.26917
189.06054        132.00880        225.01880
189.61208        135.88335        134.64687
189.57163        136.36687        151.98851
193.77956        134.95381        161.31305
192.80322        134.07577        233.44098
192.20262        138.85367        139.59030
190.02010        141.24023        161.32022
189.61272        140.40836        208.14212
189.47031        144.97536        150.01608
188.48851        145.04478        215.12512
192.32751        144.29393        234.37622
192.15437        144.59300        239.73094
190.52360        146.77979        245.04708
189.67885        149.69719        134.89464
194.08042        148.84695        196.27419
195.62677        157.88970        110.65186
190.63933        156.32080        155.08088
195.22143        160.32713        98.69889
191.08260        159.99585        119.94337
188.42404        160.20805        134.86656
188.92479        160.94755        224.67231
192.54613        165.07684        139.27445
191.98582        175.50926        115.30855
192.03497        175.50554        120.42527
189.35144        173.97412        129.67485
189.57553        177.89005        139.63740
189.41335        184.50548        170.59367
189.29976        183.21103        178.37055
195.08269        125.08987        214.78009
194.81680        131.78969        221.15191
194.56854        135.90605        150.14838
197.04869        134.76605        210.42395
194.13926        143.80100        156.94577
194.94272        139.76147        160.19444
193.73355        139.59167        165.31810
194.87011        144.96061        220.33197
194.33467        149.88138        160.41803
194.42556        153.61643        225.37945
195.06102        150.15410        230.36008
195.19333        149.72171        239.83127
194.77191        156.31308        132.57704
196.11366        154.55670        164.01512
194.57744        156.31503        216.49708
195.20190        165.28113        99.91916
195.26054        169.18660        84.64042
195.91542        169.05560        90.21080
197.17827        172.00745        102.80754
198.64497        169.98163        123.88336
197.02567        175.36044        95.36889
194.38660        174.98436        125.46410
199.66222        177.90088        128.74708
194.34283        178.12186        134.72557
202.47808        129.40643        210.23998
200.86928        132.55096        224.12046
200.03821        139.96344        147.33808
198.49077        139.35478        220.36261
202.14161        142.86853        249.12835
205.01446        150.36222        102.00462
198.61075        149.78783        157.67714
199.85868        156.61111        100.28444
200.12927        155.05971        129.72212
199.93126        159.95418        125.20709
199.53018        159.98863        134.29591
199.35684        165.30590        107.00125
200.08240        165.14476        124.02608
199.76654        170.23042        95.13865
203.64779        180.14206        113.61500
201.38702        185.39630        95.03883
204.73694        125.54131        225.06010
204.63647        133.30100        205.42270
202.54373        139.61665        228.29991
205.40964        149.58394        249.92520
205.00421        158.45017        124.57578
210.73483        170.54740        101.34923
205.02771        160.15041        112.95777
203.93066        157.64438        158.94155
203.83780        158.74136        169.18134
205.15652        165.51355        114.77116
204.53951        164.95329        129.13910
205.04079        170.31671        110.53718
205.07733        170.74031        128.24183
206.97368        179.95695        99.95159
205.06042        180.69118        136.63280
203.81916        183.66542        90.84198
211.24897        123.00571        221.63321
210.61600        130.92218        234.47183
211.54702        129.85876        244.46716
212.45251        134.71159        239.86961
209.83868        141.18390        245.15625
213.48977        144.97151        251.91050
214.91773        152.56629        115.51708
210.04564        154.78746        100.01389
213.90964        155.66372        128.64728
211.60612        160.08192        105.21874
211.92248        160.00398        120.48355
210.17031        162.03953        110.66828
208.60497        164.89186        120.45515
210.13797        164.81093        125.28559
210.22896        170.05779        120.14409
210.04643        170.33847        125.31731
209.99229        176.97643        114.62125
210.85504        176.30949        130.88706
208.06335        189.74937        110.02619
215.23470        121.56873        234.29309
215.21400        120.55817        239.61406
215.45988        124.24461        255.24744
212.89743        129.66830        253.82401
214.13178        133.49466        225.92444
215.18228        134.83301        259.81693
217.65695        139.70725        239.43448
218.14605        150.01695        239.49529
217.89829        158.16373        98.74649
215.12495        165.28263        111.46636
218.87440        166.96106        128.13230
218.09810        123.99976        225.71625
218.24469        125.71728        234.32246
220.73945        124.30126        256.78271
219.06892        129.72177        239.50890
224.01743        161.66982        109.44571
218.86314        165.09084        94.58612
220.08140        167.25333        121.03126
217.04461        170.44193        93.78594
220.08543        170.38034        110.13699
220.06829        182.33632        113.68660
225.41295        130.78796        258.64870
225.19984        134.93094        249.70850
225.15521        134.55693        254.83246
222.87444        139.30920        259.70541
224.94095        159.66530        120.73260
229.42000        167.67726        115.75683
222.26082        175.26800        112.91420
227.38883        160.24539        126.17293
