105.42102        160.60472        134.60392
105.47674        185.84382        135.02928
104.77829        202.57098        111.29780
110.96083        153.17303        123.59713
113.22885        161.25373        130.47197
111.72135        165.14914        134.32791
113.68384        190.52745        95.97087
110.74493        190.90938        114.95636
108.90317        189.61937        134.46579
111.19633        194.72660        99.98730
119.63947        201.96925        100.87660
112.90280        195.53383        127.62022
109.93285        195.14967        132.43820
116.70673        209.61992        112.60353
116.45583        210.33152        125.61434
110.31233        216.33508        117.75916
119.93874        216.09726        108.57465
115.55501        139.64900        143.37640
119.33090        151.94574        126.00259
118.19717        149.90054        145.50678
120.44906        171.93439        127.88134
114.85154        170.67735        134.40591
115.23267        185.06362        126.26169
118.41295        190.97915        108.23636
118.78673        216.86352        120.53419
125.83601        96.75287        109.32634
126.95326        96.05376        121.59139
124.41527        108.82383        109.66972
131.52275        106.05759        95.33105
125.78807        126.74918        158.17652
120.03977        138.47648        133.81243
125.82524        138.31885        147.62815
120.33793        144.46613        146.94550
127.35194        144.67472        184.80314
125.27014        157.94627        96.59579
120.15713        154.99201        134.54811
121.99694        155.17808        174.11503
120.27907        160.38303        107.87530
120.85127        160.57969        120.26276
120.07746        160.33515        133.29939
125.11294        165.23369        132.13427
120.67947        165.50462        183.39829
125.55302        181.15008        137.84142
125.15013        183.04874        119.53826
125.47941        190.62411        98.81604
127.14221        196.12971        126.96622
120.00758        199.91149        119.95436
120.13702        199.77287        128.15654
121.42104        201.36213        244.31236
126.63041        211.99270        97.96508
120.25053        208.92695        129.23888
120.29785        209.91292        244.63856
126.41242        89.84962        108.39596
124.24102        99.92874        100.06536
123.14204        104.96309        99.69822
126.73605        108.48168        125.38273
131.86061        120.91672        96.42100
122.23921        120.55635        144.90086
125.81847        125.28661        142.62429
133.52780        129.60451        136.11063
127.42328        129.65722        149.20051
126.92192        133.54545        167.43732
125.40788        134.48672        95.26644
125.30568        140.66516        134.66533
125.77409        144.41519        139.54385
125.42559        145.07600        194.89379
126.76642        165.44616        184.16736
125.52252        161.43373        167.12621
125.22893        160.46418        189.68285
124.23158        169.14193        94.59119
122.30769        169.09469        108.84208
127.86199        170.15282        175.49903
134.38719        184.76082        127.44896
128.07141        196.84029        110.82771
131.71482        196.13390        249.47546
128.48063        207.01006        114.11973
127.33021        207.86326        130.55213
125.45304        213.00319        255.81715
126.59970        223.56852        252.77203
131.25631        104.96590        105.12986
135.51057        115.30843        118.46107
129.67822        104.70110        120.27968
133.05879        118.27624        127.86310
135.46696        123.56556        107.23804
130.60144        131.86170        207.79346
131.92252        134.49667        159.95189
149.21735        136.68245        181.50330
129.97973        143.66227        158.87707
129.16706        138.53805        175.54114
128.29818        145.05799        165.17543
128.93285        147.90569        172.93386
130.84595        149.59297        181.77033
129.04830        151.24036        140.13287
129.72967        150.06497        194.39337
132.29355        153.94047        209.37441
129.63931        156.12089        108.02777
136.45111        158.23685        169.92972
129.68429        156.41735        192.90817
127.26608        164.78956        160.58642
129.74634        168.85886        198.06692
129.44642        170.44372        170.25798
129.41153        170.02911        207.90028
131.71268        181.10078        228.98939
136.97173        179.87465        145.00964
134.85863        179.73910        218.72663
131.39149        186.59123        230.36035
128.53816        188.71661        89.89236
129.74590        199.76124        133.28204
129.88172        201.35896        252.47238
129.95370        211.50232        262.14061
129.23442        215.27400        120.16937
130.88807        212.87477        239.41296
131.91808        218.50245        249.81805
137.12673        222.97518        258.01966
136.07159        99.15038        120.35726
141.44742        99.12554        125.20931
136.10927        105.00237        123.13614
134.40238        112.90820        107.95659
134.55778        127.40670        150.77357
136.00379        134.73880        149.97179
134.81737        132.71195        164.97219
134.60901        140.71364        206.69594
134.62809        143.41730        218.52791
134.70069        144.51123        125.67197
136.68713        145.74805        134.76687
134.50815        143.60485        190.12761
136.32637        153.11860        119.61512
134.49079        147.55934        129.90191
133.21908        149.48602        144.69180
136.02871        150.45130        152.97527
134.78422        154.85712        107.85855
138.68306        160.83486        195.31669
135.03286        154.88338        219.08149
137.21473        159.04397        142.32928
136.06307        162.02967        155.28360
136.12581        159.96217        180.35245
137.98175        166.57153        90.50912
135.91134        168.60869        165.08068
135.52839        167.00078        202.63317
141.54919        171.56427        187.72075
138.35379        175.38312        93.94670
135.00787        180.30728        191.22427
134.65794        185.07791        109.81705
134.45012        184.15006        138.35455
137.39910        186.38301        155.19074
134.78611        185.88490        245.11260
136.24877        193.94249        111.98405
135.86098        190.17893        115.60535
137.98172        189.77534        235.77830
135.76490        197.41328        101.80485
134.84500        192.65634        164.73446
136.50210        206.66318        102.23750
134.41069        206.09092        110.17736
134.25349        210.37857        243.62523
134.74842        213.95439        256.78782
139.29072        215.61358        244.56775
133.52568        221.78171        264.84721
139.68179        92.83340        105.05876
139.27770        104.73711        114.82473
139.60224        113.38606        91.20415
139.72102        115.14661        104.82158
139.98298        117.34469        133.79817
145.77257        116.86870        95.31181
144.62126        127.38663        128.13357
139.31977        125.20679        153.54756
139.91103        133.47205        199.84825
140.79466        134.85259        205.12315
139.88492        142.29760        125.50320
141.08725        141.70046        190.39360
141.67918        143.15141        205.06621
140.87254        145.04059        85.07114
140.17335        144.89719        91.13863
142.69873        143.88356        155.97174
139.81499        144.07626        167.83970
138.49428        143.84300        175.07517
142.04915        144.84601        216.83180
139.22598        149.73926        192.78766
141.43654        153.33405        209.71314
143.08879        153.19886        178.91966
138.22781        155.07904        215.20209
138.41549        158.95292        102.69875
141.40477        160.00737        126.54220
137.59711        159.05087        134.68068
137.51277        160.20295        150.00387
137.62930        165.16875        175.42078
144.89232        174.07027        86.36659
139.05503        175.70778        232.53348
139.58906        180.48533        215.03073
140.06099        186.08518        220.17773
141.95569        182.52591        246.79241
140.07412        184.54874        226.82542
142.64374        191.12959        139.42798
146.75155        195.04442        161.68295
139.98781        194.67640        225.44297
139.97557        199.96808        229.02258
140.06967        215.35120        230.52594
143.00621        220.38558        238.01793
145.05306        96.57618        103.05156
145.15604        102.64046        108.79041
147.34411        104.63916        93.43162
144.88536        109.92338        104.90388
144.94387        113.85829        120.07444
145.09067        121.55227        113.47184
145.32044        118.83513        125.55590
144.93688        120.20509        136.12869
149.35546        123.84568        107.07210
145.12668        125.94202        144.50064
142.60917        128.56896        149.89496
144.79278        133.12246        141.35107
145.92369        141.41228        128.95945
145.02655        142.28106        142.38427
144.46785        139.31339        195.26174
146.99172        144.53471        209.85557
143.54525        151.92225        120.38884
144.86540        152.91635        129.92733
145.96349        152.60070        139.58461
145.93379        152.05860        170.23019
146.05921        152.96335        144.91023
146.24248        152.95505        149.91814
147.10857        152.92794        155.00170
147.93341        176.21556        128.67058
145.00327        170.47382        137.25830
146.90864        171.47050        144.83998
144.95854        170.35419        197.87227
150.62052        173.82572        207.10933
143.55503        175.17694        199.78970
144.34375        174.10382        204.85521
144.78938        175.56686        223.91442
144.80810        175.22052        235.04103
144.82850        182.42417        153.23491
144.84998        180.63080        225.37923
146.03232        184.55891        89.49936
145.22448        184.38781        163.80287
148.82383        181.25234        230.70121
144.75233        189.57651        152.76631
144.85362        188.89662        212.60023
144.81553        189.70284        234.43857
144.72300        202.21086        150.49680
145.10931        198.57187        218.07924
145.93885        202.17123        226.36743
149.42478        213.83084        217.85339
151.21100        207.64434        228.55296
149.86212        105.28037        110.03253
150.89080        101.94035        131.41800
150.94897        109.77197        123.75216
149.89924        116.71193        115.23877
149.87702        116.84098        123.42669
163.32922        117.85642        132.08624
151.45038        131.86290        163.50238
152.91344        124.95392        185.86892
151.99369        124.65333        194.75202
150.36929        130.24677        200.00661
148.53671        141.35186        134.73028
155.07037        137.04294        194.40761
151.19242        143.62891        82.32511
150.22470        145.07413        178.40563
149.58753        161.20584        181.99555
148.63431        163.72732        210.14542
153.07334        165.17871        219.02681
148.78349        171.55004        150.01072
149.65057        172.01059        155.05913
150.07195        171.74615        160.06982
150.34595        172.74496        165.22304
152.41091        173.45526        172.22019
150.00406        170.75436        191.11552
151.50374        176.46895        194.93718
149.83686        184.62461        147.28378
149.87270        184.84218        161.42099
156.23801        182.85805        187.04662
156.33498        189.23384        139.71190
152.46093        189.72488        150.52105
149.99504        189.39838        165.26087
149.91172        189.56597        170.46486
148.70351        189.51052        230.99262
149.87951        195.15671        93.74630
150.15395        196.28624        220.62708
148.74575        194.69198        234.68157
155.18712        197.23515        139.51723
150.08020        205.33008        214.06385
149.71428        216.08486        226.75252
156.40631        95.33099        104.12576
156.52996        120.33078        129.46394
155.09400        123.18572        124.27603
153.56457        124.97006        170.34101
153.72019        124.23419        175.35860
158.28919        137.37936        153.79964
163.38360        136.93713        211.22515
155.41695        147.08388        88.92918
155.16166        144.65339        185.08935
154.53987        150.07164        236.10387
155.75340        166.58740        139.68510
155.45424        165.31240        144.81072
156.03274        164.95101        149.97662
155.97255        164.09963        154.94686
155.21614        163.13664        159.94838
155.35594        163.07559        167.82544
158.28230        164.65768        179.07421
158.34418        174.08243        122.52390
156.30350        167.84920        134.49946
154.61682        170.31637        220.43325
155.62210        178.53842        135.61876
157.91544        176.67431        152.03740
153.75922        175.92999        182.61886
155.12549        181.56833        129.45373
156.71394        182.36828        163.79351
153.53290        185.48298        89.74751
154.78754        184.71481        220.28381
154.10876        189.71012        220.32545
155.57512        194.88488        155.86385
153.71648        194.88243        225.72158
155.05279        203.52668        216.72090
154.82006        209.82546        218.90404
162.07410        124.67665        128.28640
161.19304        120.25714        180.96062
163.17493        127.24216        165.23624
162.38899        125.12331        186.58723
160.15507        129.78409        105.45437
160.50858        129.80028        134.22043
160.08143        136.27312        216.59437
163.37878        138.57935        86.51352
159.80202        143.81927        127.87222
161.72187        140.74968        134.72296
161.42857        139.84768        142.37815
158.65422        138.32290        189.96543
160.66771        145.76784        178.25410
164.99040        150.11614        124.52151
162.16701        150.31435        144.95022
160.55730        150.28921        149.98351
160.22711        150.36022        155.05847
160.38796        150.25247        160.06297
160.27740        149.84020        167.77307
158.12964        151.09164        247.71848
161.05656        154.84427        184.67245
162.22358        164.82989        214.96043
159.03989        170.27098        160.01880
163.18907        169.81399        165.17638
160.60742        171.53176        189.83436
164.98948        171.11533        212.13616
161.82180        176.89251        182.42414
165.60001        173.33826        195.18936
161.18014        177.99206        203.16146
160.01200        173.18406        219.90790
160.31890        179.72042        143.14570
158.74151        180.32975        154.92325
160.34104        180.27751        175.36863
161.15607        183.32599        170.37508
159.43496        186.53016        209.92261
160.19485        193.41736        152.09878
160.33836        189.67918        215.07802
162.65744        193.31382        221.66593
159.90979        199.84002        220.66750
165.32980        115.15805        133.12326
165.48758        123.74772        97.15001
165.04498        126.49837        170.30127
166.73546        125.73656        176.64600
164.21960        134.78453        165.03367
169.21079        142.62270        119.93410
165.23051        139.91927        189.45964
163.88309        144.81283        194.54951
170.94185        146.00585        205.05649
165.52363        145.13043        217.98316
163.73164        150.29287        134.50619
162.90102        150.36167        139.61887
164.60714        151.17992        211.74484
165.31141        157.59761        179.79424
168.79579        159.05500        185.74491
165.07979        163.84920        210.03627
165.40505        165.43376        169.01654
166.80184        165.26754        195.14555
164.95769        169.20739        127.56810
165.55451        170.55125        137.29082
165.43206        170.24855        144.79003
166.99300        169.07725        152.53635
165.79311        170.27106        172.96416
163.75749        180.40512        196.12109
164.90497        182.48100        144.61955
164.77497        184.88035        155.85342
167.43939        190.64769        129.55558
167.17415        189.80698        148.95903
170.01339        125.08954        106.26459
176.84833        122.61311        120.22509
170.45370        125.30496        185.84185
170.74295        129.42648        200.09131
167.26040        135.04589        84.66017
170.48012        134.90931        108.84240
172.39209        135.92311        174.51429
169.93715        134.81048        194.56977
177.49748        145.75552        195.15004
169.12348        139.31586        90.23286
171.46677        140.20089        144.60350
172.80992        145.44864        136.24460
170.43812        143.70273        151.37123
170.72220        148.28754        169.25109
170.56794        150.77697        157.68823
170.40879        148.70693        190.76962
171.97090        157.04961        139.81697
171.43145        153.76030        149.77631
170.19438        155.42458        180.48404
170.34455        155.24501        197.80690
175.00305        153.48274        127.83537
167.18943        160.25198        195.97114
172.39106        165.75959        163.46318
170.61061        164.63340        175.58750
168.15663        166.30064        181.78737
173.41234        178.65131        171.57503
170.13208        182.23892        188.88503
170.31061        192.20976        134.94593
173.47879        198.99801        126.36205
175.37666        127.26547        134.32669
174.83474        130.97940        97.88026
179.68249        128.76968        127.97792
173.46117        129.56357        184.67609
173.15277        130.61761        194.58996
173.05506        135.74784        140.85116
175.69470        134.56588        189.40512
174.51545        139.96367        155.27553
178.03562        139.71756        161.91428
178.18384        140.45875        182.06046
180.26489        142.68622        231.31283
175.00417        144.84731        129.46908
175.60172        156.89196        186.79085
182.44843        152.62134        217.26722
178.11051        164.72829        199.67947
181.16827        186.19624        133.02456
176.35151        175.00622        189.59084
175.53248        177.27795        184.31632
176.24810        188.31424        122.09670
174.90054        191.79048        102.01143
175.42383        192.37868        136.35392
174.19303        194.35158        88.32199
175.07374        199.41133        109.86615
174.60934        199.92742        114.85879
179.01598        124.53763        109.73901
181.52181        128.90089        209.87150
178.84270        129.32032        147.43776
183.30784        138.16648        137.19710
192.03004        133.91264        221.39734
184.84779        137.62650        150.47607
180.97004        144.37436        140.02945
183.29489        147.37510        161.39731
182.08230        144.65196        209.35008
182.73616        149.24441        150.12141
177.40479        151.07986        199.80355
184.81072        152.34649        232.12560
183.78548        158.76402        144.01225
179.20498        159.64945        189.52726
180.41142        166.16089        169.02494
180.12077        167.89346        186.19060
180.75714        169.95763        175.63805
180.46571        178.06104        184.91078
178.30066        204.83757        103.64355
188.51804        122.45597        213.97176
184.63929        125.20053        222.94743
184.43669        134.40259        129.66445
188.14878        140.58637        166.79374
186.27294        141.55327        207.96296
188.92643        145.44543        244.06098
185.76444        144.68552        135.04454
184.68653        144.77237        148.75953
183.19028        150.11721        239.66459
188.60784        156.33701        155.24978
190.26055        159.55289        127.46290
184.77783        163.20178        135.26265
187.14736        160.90817        224.71221
189.41946        170.49561        112.22339
184.55142        170.41860        139.82323
184.70242        174.16815        125.93044
186.78211        177.36732        139.10563
182.35114        199.82571        90.08496
184.17409        205.33041        79.23631
183.30241        213.70707        89.83651
191.68951        122.06913        221.56490
191.37558        135.12100        141.28236
189.48799        134.89393        153.60643
192.26293        134.61270        232.56294
192.77413        145.44739        231.28843
193.54281        145.49252        156.98553
189.45692        144.90715        215.33541
189.70912        146.35383        220.17579
189.60730        152.25233        137.53828
196.71141        157.78142        111.17155
189.67435        157.79505        217.98124
192.39147        165.33372        139.48716
191.67075        170.40405        139.06188
197.26284        174.22706        125.92904
189.52600        173.95943        129.50337
189.83481        181.86931        178.47663
189.91375        205.36407        85.00986
194.91821        125.14296        213.28432
194.63874        136.07026        150.19859
196.23661        134.39881        210.22996
193.29255        146.19572        139.85795
194.71148        144.87970        222.81917
194.71904        156.09305        216.57823
203.88791        153.95618        101.17357
197.95549        159.92512        134.52616
201.62302        173.84597        108.13053
194.96959        165.20390        119.11514
198.31239        175.24010        95.73758
194.80192        175.27270        134.95351
201.87378        126.15352        225.16884
205.42404        126.21060        212.50133
203.85480        146.50571        248.00548
199.73658        150.40107        155.45392
205.95532        162.26524        126.45447
198.48138        153.91020        220.30039
200.09128        160.28135        124.22189
200.18050        165.10549        108.77234
199.71947        170.07509        94.95849
199.80276        179.69395        140.74579
208.63092        154.24614        110.17636
204.81527        163.20449        112.80174
209.68990        166.87962        97.81896
206.84796        180.00922        99.35835
208.70708        180.11260        121.42154
205.18212        182.19193        137.17243
210.14708        120.82691        220.37548
209.90557        125.22891        224.91588
216.95781        125.47421        233.55172
212.19939        130.00257        242.84257
212.16219        134.60732        239.66707
210.06580        144.85199        250.15315
219.27604        166.54299        107.75919
210.14747        160.21783        95.10469
210.46818        160.31186        113.00070
210.15561        170.28457        120.16166
215.74420        170.27527        128.95969
215.74373        133.40105        257.08778
215.01600        132.28743        225.86951
219.00930        139.71140        238.26496
218.68572        144.65371        249.89347
218.33202        152.69232        117.29422
218.13833        148.09666        239.15366
214.60825        157.05359        129.34030
217.39661        166.80473        120.28685
214.87253        170.25389        105.19942
223.74050        127.23438        254.95840
221.65860        133.07193        248.75071
220.19727        130.85235        264.00568
228.00024        142.30198        246.80622
225.22544        160.84724        122.05146
