112.39246        152.84884        157.59473
117.58762        167.73743        151.42089
112.85145        170.91622        163.40089
112.41122        172.74124        175.71674
113.86764        195.58633        167.51468
116.14714        195.96787        175.65293
113.87298        196.13860        162.63579
117.97400        152.86311        156.84030
117.76212        155.29108        167.87684
117.81039        162.66610        165.10717
118.40774        167.84742        173.15587
120.90304        165.42202        178.29727
118.20680        181.01189        155.43072
117.92374        183.00352        178.39092
117.75250        190.34382        158.76670
118.42794        187.91531        171.23901
123.48536        148.05489        158.92747
127.86062        151.65418        168.61554
126.30772        157.39172        154.51204
124.43750        158.16022        173.38428
122.88850        167.51540        148.05733
122.75126        167.07612        157.10552
122.55316        167.57094        162.36970
120.30585        167.53432        167.45045
121.76638        172.74975        147.48872
125.15567        174.07612        174.99447
122.81650        181.09427        175.35044
121.50389        187.09522        153.00176
124.51207        190.82077        162.00399
123.33336        194.25388        175.08806
128.90744        162.35623        161.87567
126.44193        172.99579        187.64243
128.66323        178.08109        154.48026
125.97666        179.38329        162.52651
128.67018        181.95746        150.30690
130.61779        192.36898        190.05048
125.49004        197.52011        164.21310
125.89006        201.29116        167.58148
132.30975        157.19972        132.30975
135.99113        159.27351        155.61301
131.78432        165.08629        167.23526
133.83909        177.81818        162.55374
135.71103        172.74923        176.72806
135.86745        182.29402        167.55131
131.79314        187.46027        192.11153
136.67118        190.51151        159.05181
132.55741        197.60028        187.25009
132.21790        200.44365        190.12220
137.61096        146.39678        177.92563
144.29627        150.96281        170.16994
140.71754        156.09249        181.22509
138.14741        162.16144        162.46088
138.48372        163.83329        171.47766
140.36675        172.84301        162.65836
137.37455        178.30442        155.33762
137.20089        176.88311        185.82122
138.01754        181.84280        173.37929
146.67233        150.54583        182.90943
144.45299        165.43146        148.43579
147.94056        164.94693        153.12989
142.59102        162.45095        177.51726
142.58961        169.68735        153.10215
142.68566        166.21107        183.56457
147.63669        173.44604        157.32049
142.21344        172.97028        167.51258
142.94813        173.42928        173.37667
142.56508        180.01409        177.82277
144.25063        178.20939        192.77990
142.75867        184.60042        167.77067
142.53848        189.96937        153.01269
142.50743        189.79352        181.89089
144.12569        194.78096        193.44743
148.05456        141.83257        185.41688
148.62878        147.67067        206.38531
146.92672        145.34338        219.68492
148.34425        155.22789        192.05112
147.66176        157.35664        162.45136
150.72931        153.53015        202.73164
148.24363        162.51270        163.75110
148.36154        162.12921        191.08057
146.58600        177.99052        162.36857
147.96854        185.85807        153.65532
153.49913        179.19809        180.19848
147.44022        187.55664        162.82365
153.13365        141.09178        187.62907
154.39161        148.06798        203.02826
155.11633        147.37646        210.00013
155.40397        153.05503        167.66795
155.76507        156.59490        195.50211
155.49716        163.05235        188.10403
152.35858        175.38566        167.07194
151.41669        182.38036        162.48539
152.36363        184.69373        192.84357
155.31390        187.25095        162.72459
151.86838        187.31669        186.86375
155.67940        192.78002        165.37965
150.81955        193.63462        187.52777
156.96812        132.19045        178.02297
157.73306        140.54527        179.26061
156.88534        137.44943        187.84529
157.64703        142.51330        163.04466
157.34580        142.72305        171.36847
159.71513        145.06626        186.81260
162.96378        151.30760        160.47392
159.72883        160.36988        179.55051
157.58454        157.50068        187.29457
158.24567        170.24074        162.37223
157.26496        175.28646        172.86529
159.19111        182.84553        192.65304
157.18933        187.26851        167.56751
160.55407        187.45004        171.94554
161.08306        187.52026        187.79994
161.97484        134.02117        170.31467
162.20577        131.65793        182.01058
161.91699        135.06232        192.20998
162.66551        137.80203        157.17818
162.50821        147.59644        168.97862
161.79948        153.70077        182.43485
162.16634        156.98913        172.73886
161.90571        165.30229        167.78491
161.00121        166.10023        172.71706
161.64448        182.24353        159.24299
162.11294        181.85550        182.41495
162.61179        193.06098        164.35565
163.70809        192.56066        182.12571
167.36052        138.08943        162.13834
167.66588        137.70294        167.49160
169.18919        143.27875        187.43744
165.94695        145.48113        177.97901
167.55668        151.52194        169.07747
167.40094        156.66338        176.59269
165.91027        162.47397        172.82598
174.51440        173.12517        178.29532
170.26732        182.49123        157.53174
167.80306        183.83782        169.07734
166.17081        192.08120        187.43737
167.99933        197.27052        162.13843
167.69423        197.65718        167.49171
171.27851        137.50652        157.49943
172.74048        142.31955        163.96627
171.65176        142.79934        182.12570
172.04849        147.64832        169.59286
174.27667        147.83959        187.79991
178.06775        155.28960        180.82670
173.45405        170.05765        167.78497
178.57906        171.54020        187.30584
181.29995        180.46447        195.74843
173.56039        181.65911        182.43485
173.14194        187.45420        162.28863
174.15612        187.71660        169.64208
172.69458        197.55788        157.17821
172.53619        201.35799        178.67536
172.97588        201.28024        192.47970
180.58282        142.50800        164.83530
177.87486        148.29676        162.47904
177.09716        149.91386        193.29543
175.10989        151.66687        157.73065
180.22241        152.93157        173.67653
176.76826        152.45237        198.46202
180.16555        158.33815        165.97636
177.11424        165.11915        162.37221
176.82301        162.42860        171.01908
179.96703        167.62901        174.21662
177.77531        177.85916        187.29454
179.95589        182.30475        167.66788
178.62857        179.87180        176.01408
181.18539        188.88767        210.10374
177.80740        193.99007        167.47002
177.51597        192.39347        181.65790
176.32415        192.10405        187.03599
177.80636        197.67921        177.68083
176.25626        203.20441        187.57151
182.99634        150.66628        192.84363
182.07642        151.59739        157.70306
184.62887        182.31463        202.81454
182.12675        197.31948        188.24647
180.75393        196.03360        217.32090
180.50504        205.43346        178.01378
189.08589        140.97348        196.51729
187.50167        150.23544        162.90214
187.11059        150.40726        153.55588
187.27861        153.03321        176.42987
185.60384        152.99304        187.32044
188.77396        157.36962        162.36865
189.58357        162.67639        157.19099
187.00361        167.16785        153.05841
187.11528        172.84499        163.75932
186.99847        173.23074        191.08066
187.69830        178.00339        162.45133
187.26730        185.72755        179.69515
187.11974        186.95681        167.93754
185.95347        187.15166        194.46507
186.34253        189.89729        207.33386
187.25767        193.86551        185.60612
194.74644        138.04767        193.28651
192.65620        146.13480        153.00434
192.72353        151.51521        169.40009
192.85266        145.56663        181.89078
196.78823        156.66506        154.56373
192.01084        157.40020        175.26513
191.10928        157.15062        192.77995
192.51755        164.32331        149.49694
192.76326        162.19563        162.44704
196.87616        171.52664        171.47759
192.76887        172.90896        177.51723
190.94448        182.07688        161.00243
194.14343        182.31516        169.87453
197.70773        146.14761        157.30551
198.00445        144.87655        162.27206
196.12189        148.26346        172.35699
199.49261        153.06605        167.55132
199.23384        158.57673        184.22465
198.11486        164.83489        178.34840
197.76108        173.33965        153.76264
197.21234        173.19830        162.46087
196.09331        178.67820        182.26805
197.72344        181.56185        156.50827
197.38484        187.14527        173.25488
197.79617        189.51913        179.06261
202.80250        137.75969        187.24995
202.75766        147.63538        160.55171
206.74163        156.98875        152.74817
202.09501        157.58539        163.68227
212.28573        145.40742        162.03390
210.41754        155.72182        165.81396
209.03296        162.37790        176.41899
205.32661        162.07540        181.96760
206.52708        169.15690        168.10281
206.45264        173.00361        161.87570
209.32125        175.65191        172.53986
209.71659        178.53234        154.26183
209.97996        184.68896        165.65190
212.27296        142.44406        174.82469
213.85594        148.26461        153.00183
219.10133        157.20623        158.23357
212.08600        155.56218        176.48557
215.34120        162.59174        147.56988
212.47152        167.84458        148.05734
212.37104        169.01841        155.38905
212.80674        167.78909        162.36987
213.02853        170.31426        177.28180
221.54853        139.65323        164.55390
219.44882        138.84354        174.77780
218.01256        143.08563        157.72179
216.93214        147.44479        171.23898
216.85715        152.37426        176.40940
216.56273        165.78147        173.10621
217.77235        167.62256        151.42091
217.23357        172.70686        167.20413
218.57650        178.98698        167.67018
217.38604        182.49702        156.84027
222.67774        146.27636        158.97725
222.89765        167.20115        165.99948
221.38963        192.56968        187.32968
