137.63058        152.74508        202.64294
137.80506        152.56433        209.75346
149.94567        161.02039        197.25345
156.67683        172.97199        217.35644
152.69640        265.55295        209.25003
148.00571        142.86418        204.25137
142.95472        147.28820        218.99724
146.63836        157.77984        225.20247
145.94315        170.56517        224.49021
143.45381        173.96110        217.03649
149.25624        230.46492        208.28089
144.66948        240.63209        202.54327
144.85489        244.70301        212.34686
143.13271        237.89144        217.10014
155.09044        248.08803        229.53623
146.93512        253.83846        229.23955
142.98853        258.19926        217.81187
150.26482        262.51830        224.54389
147.19956        135.94868        203.07707
147.21297        143.20956        217.10252
151.70797        149.55823        227.68516
146.95592        181.83472        211.02114
151.77276        207.88091        223.91065
147.43587        217.81057        220.82242
150.45181        226.56570        185.64840
147.75804        223.16554        203.10604
147.24904        227.98339        197.45053
149.72810        245.43069        194.56778
147.57211        252.30704        222.89464
152.73250        132.25458        185.05688
150.74031        132.13398        202.76135
159.50800        135.49949        218.18640
171.32111        147.63181        178.93956
150.82750        134.66385        197.41351
157.50621        148.28989        209.03886
152.58528        157.87088        218.57074
154.33466        166.07983        207.55230
152.68032        164.90537        221.12432
153.01835        174.47534        198.49841
152.68612        172.84568        212.06858
152.40865        172.67740        227.84421
152.68867        205.30423        217.40036
152.89208        207.73895        212.45065
159.09091        209.85458        182.36113
160.48447        217.00773        176.38772
157.92696        217.60586        189.38195
152.71742        217.34575        217.25200
152.15742        222.94887        196.97995
152.25901        222.66466        212.13368
164.96752        246.96294        204.00977
152.61025        245.51372        209.50256
161.52252        251.42003        221.15206
152.50986        252.52010        187.55728
152.57239        254.16188        195.83601
152.54580        254.31437        203.20284
152.65686        252.28710        222.58058
158.51322        253.48174        185.69016
152.55012        261.99387        194.03437
161.35376        117.47791        227.31872
173.49607        123.46131        179.54994
161.79880        131.60641        190.57660
169.73147        141.00616        200.12093
158.19795        126.67848        222.39362
159.97698        132.31677        182.38523
160.99109        137.75241        208.39581
157.32601        152.12618        187.37329
158.29159        152.34421        222.98496
157.86192        152.64225        228.03608
163.61120        167.17194        215.45629
157.44313        167.50502        227.93430
159.87627        174.80892        211.43702
157.63957        205.08173        210.65140
157.61630        206.70617        222.74634
157.53406        211.88646        228.04401
161.31014        222.37845        209.68891
160.25125        215.17071        219.43272
158.03321        222.69825        187.63780
160.07232        222.91392        194.01991
163.63087        228.48081        171.25997
157.39572        227.59073        217.13935
162.31032        237.51858        178.97566
160.26720        230.13301        207.81617
157.93574        242.51191        223.89950
157.41976        247.20823        187.81213
159.47549        256.56057        196.31004
159.54744        262.09192        210.52048
157.80859        257.75710        202.53494
162.38152        123.06477        217.65152
161.48223        137.45694        182.10240
168.09688        159.72528        207.26352
161.74786        162.24097        185.92124
169.58138        201.22940        192.53598
165.51631        197.15373        204.14989
162.31616        207.94353        206.24171
164.64542        227.22653        182.23156
161.99666        228.01252        190.20654
179.16012        116.38019        194.68989
168.71236        115.72231        211.35786
167.16881        124.77220        220.81205
168.14310        132.49064        174.11925
167.06231        137.53599        187.58951
166.96680        144.43743        202.68691
168.98033        174.17560        211.97567
167.57475        173.00347        222.67807
169.11123        181.32173        206.89910
167.19483        176.61287        217.69889
172.08486        187.19306        198.66094
167.11954        191.13099        211.32035
168.29416        203.91832        181.88405
169.21851        206.13261        176.59852
167.33919        212.42658        206.04010
168.95817        218.75878        188.08835
169.34635        219.69799        204.19406
166.89091        222.50999        182.25591
170.10223        229.99690        195.79060
172.94419        244.75192        192.89910
167.81396        248.82396        181.81015
172.42503        244.47757        211.71009
172.00971        253.10505        180.22106
170.65524        252.20146        213.03336
168.51245        260.91999        214.20866
167.96541        259.25946        232.90777
167.63281        276.45228        222.39954
174.19270        113.67327        187.49068
173.06051        137.53832        174.70832
172.50488        137.68066        182.10145
174.50224        145.21414        185.12382
175.71661        147.70247        212.24936
172.77276        152.01994        187.72607
180.92843        177.50678        195.58310
173.23359        164.71755        222.90927
172.93201        171.23739        236.15897
174.64269        182.20993        189.43498
172.22674        177.12774        221.46546
172.46488        188.72588        208.08305
176.05445        193.79468        195.40052
174.25365        197.34380        203.30965
175.51574        202.58950        179.21763
174.29162        203.17853        202.40339
172.71960        209.86142        175.62573
175.62172        211.41131        190.56522
174.73556        211.60327        182.51078
173.03044        213.63619        211.50296
176.84053        240.59774        177.13726
173.48414        236.25457        184.88278
172.78100        231.97453        201.89166
171.13428        237.49879        193.02510
174.64935        237.67512        211.89827
173.86132        255.36047        187.71474
175.25550        254.20691        194.04281
191.77598        263.66804        217.27266
175.62378        277.98456        206.10574
177.03003        105.59779        202.05531
176.98291        113.41358        201.89066
180.28843        120.50304        187.62213
178.85985        122.69049        209.45967
181.99667        138.03432        185.25875
183.89290        179.11414        232.43263
184.83151        183.42173        219.77463
176.60138        194.53377        186.31630
185.39389        194.16688        213.52490
176.74976        211.46058        172.70288
179.66633        211.56932        202.23515
184.48515        214.06963        173.85360
178.51279        217.52237        196.68004
177.51823        222.88375        182.64930
178.42491        222.62045        196.04798
189.31991        229.28081        177.14450
180.28491        228.44625        185.29697
180.33179        233.29867        200.90793
181.87476        224.68223        209.19623
176.48157        261.76528        216.80540
176.81447        267.62048        215.56158
176.89627        277.90191        214.53254
181.83495        111.64011        187.30234
181.94476        122.26435        202.02514
182.63717        128.65425        182.28837
193.30253        133.58999        181.22470
182.20452        131.25670        199.19585
193.67853        127.16628        195.89686
185.38075        132.26993        173.19625
181.80421        137.73461        200.33656
182.21660        137.75657        212.07627
181.87006        146.11839        203.54522
182.69195        147.46144        182.25773
180.79849        167.82726        237.65705
189.56218        175.52958        178.48044
182.51051        184.32939        182.28144
182.08780        195.64205        184.78822
186.04380        208.19071        183.16602
182.60566        202.53932        192.63638
182.30180        206.02879        177.17743
182.45400        220.33042        182.10561
182.25889        217.44647        190.27750
182.32374        240.12824        207.44729
186.59812        242.77130        214.68317
184.17311        253.47195        195.20591
186.44521        257.88655        187.57841
187.53087        259.57216        194.45916
191.68402        268.83330        187.73125
187.62200        130.38194        182.52012
187.84888        131.66800        202.77227
189.04639        141.02183        188.06727
190.23943        146.57732        178.74961
188.09928        152.85596        216.74692
195.29669        171.30323        219.33956
187.83918        177.11070        213.75505
193.42333        193.81791        187.12953
188.53306        195.93658        195.85263
194.71883        200.19602        194.52572
187.62190        202.22840        207.55575
188.00888        207.61944        192.82128
187.54141        219.19301        182.16832
187.52058        222.73239        187.77351
187.64943        223.96407        194.17155
187.44873        220.85247        202.27949
186.48389        258.26365        180.59971
192.42571        132.87554        173.13057
197.01906        135.77616        211.38568
195.64812        138.85307        184.52069
198.19874        152.93957        217.01237
198.55473        159.94722        225.58264
193.89244        177.16972        190.11423
190.15035        177.18376        237.04371
195.29018        190.32393        174.78525
194.21698        190.62542        182.59311
194.77892        191.97939        202.53174
194.29967        200.35577        203.17635
194.21800        209.48754        178.43637
194.84789        209.13756        190.39272
196.38885        215.85510        185.44351
195.28340        215.55457        203.37152
198.34591        217.18210        193.62651
193.01310        223.14685        182.39702
197.71131        220.46363        214.57212
194.19273        231.38654        212.80378
193.15627        232.02449        202.71058
195.95941        242.47208        216.06188
195.04947        252.26421        223.91679
196.46578        278.39407        198.48099
197.06414        137.40317        202.56497
202.18531        144.93285        211.15710
201.77090        170.26778        207.64796
197.05409        173.17781        187.83256
195.50142        182.02305        182.53074
196.83832        182.46960        189.70741
195.74426        187.92209        187.23794
195.78373        223.55767        195.95618
196.66272        226.40219        202.64871
196.99050        225.11494        207.62176
196.99145        228.49056        220.88178
201.27979        238.52448        222.36272
197.03288        244.99053        223.00119
205.66591        265.19607        211.42649
197.26726        261.97721        192.58134
197.66046        277.80608        181.88244
202.35047        126.89912        202.37400
202.69390        132.00917        187.73710
202.56180        137.53018        182.64962
202.46954        142.53313        217.27489
212.59747        144.17403        218.54313
202.40380        148.24193        183.17829
202.44750        162.41595        215.94642
204.24350        167.15059        222.37074
201.91179        177.18334        187.55548
202.78572        175.22849        217.22226
202.58179        182.61859        182.17220
202.61990        182.16000        189.52016
202.22039        187.42177        176.90797
208.44216        195.17236        182.32244
204.36522        187.67741        191.02906
202.44859        188.03142        202.08462
207.81035        185.12880        213.27782
202.38619        197.01289        206.02572
202.49950        202.49945        165.99196
202.49959        202.49963        197.33599
210.55185        204.85564        194.76924
207.02955        216.68245        175.81608
202.55118        216.96824        202.08466
202.37979        222.83983        189.52007
203.08789        227.81626        187.55556
203.66865        235.26834        207.31223
202.22771        230.52615        217.11904
219.05968        227.21671        226.44289
202.55211        242.58360        215.94618
206.93772        244.72552        225.75359
202.60885        256.14064        183.05243
206.77527        252.64671        217.48049
202.42531        269.15579        182.51264
202.30568        272.99047        187.73707
202.59228        278.21974        188.06501
204.28733        278.80292        194.78287
212.39619        277.45552        206.97320
208.59912        126.71860        199.21075
207.33882        127.19324        181.88235
212.96128        136.33754        186.97835
207.73246        143.02236        192.58131
210.95781        153.86205        222.85648
209.31244        161.51056        216.08118
207.49442        161.89253        222.82011
210.68586        174.06370        213.74395
210.82716        176.94349        182.31163
217.29683        175.14061        174.82587
210.35110        181.96611        195.87385
207.99335        181.68657        202.30230
206.00233        185.78423        173.08407
216.48200        187.37129        205.20670
209.25734        194.81215        190.15347
205.96165        198.17539        167.34948
207.63903        196.85462        195.19313
215.31451        215.05132        184.48931
217.13567        210.25022        207.86758
207.85907        222.70098        191.41205
209.84520        229.18368        189.60673
209.57688        266.61536        184.52033
210.80013        267.19498        173.74053
212.69247        269.57366        193.37619
207.93546        267.59671        202.56502
213.90383        273.51331        185.24524
213.63439        284.63741        184.06881
215.78009        146.24298        193.66480
215.49017        173.14566        186.58101
211.13018        174.90076        202.61227
211.98652        181.85284        182.39707
219.14649        184.57151        190.16866
211.53127        193.03490        173.26741
217.90812        195.75247        183.88486
210.20137        223.07895        182.61064
215.44210        229.68219        178.79519
216.68173        261.84606        177.01106
212.57350        272.12373        173.13051
220.20153        284.50741        176.85703
217.35916        134.10424        208.10846
218.70246        146.91338        180.10445
218.55461        147.11310        187.57844
227.65619        159.61506        180.01472
221.70884        149.22663        194.77587
216.90515        162.26935        217.03329
217.36200        178.62102        192.79327
219.71369        193.61139        173.30800
217.45820        185.80664        182.16823
216.99133        197.38071        192.82104
216.93714        208.75072        195.18355
220.52804        222.46033        190.39575
217.69781        225.63630        213.22011
216.90027        252.14356        216.74695
219.26339        272.70327        173.96546
217.37785        274.61772        182.52003
217.20353        274.14688        202.77505
220.85093        293.42481        189.34316
222.50490        135.07221        192.76036
221.05927        162.09742        212.06269
225.03103        173.10703        199.99932
224.70186        176.08451        184.35697
223.35822        185.53443        182.13063
223.91150        187.73477        173.89008
226.14883        187.44762        196.71305
224.65740        194.24313        202.21176
222.39386        202.46037        192.63635
222.91197        209.35762        184.78831
223.39492        211.35415        218.60048
235.28333        255.98771        179.70333
222.31160        252.34720        211.45101
222.23847        259.83518        182.57599
223.95127        260.04877        202.49570
223.62779        266.91887        185.34236
229.89906        257.25591        212.53751
232.83867        267.39485        200.39684
222.78298        267.24314        212.07623
223.55073        272.88623        196.48958
222.36312        276.34564        182.28820
225.09335        283.68195        195.17255
222.50719        276.23583        202.44206
230.49137        279.18366        187.58752
222.81626        284.61950        202.35126
230.27777        126.92162        205.56267
229.82118        132.71487        211.83708
241.08434        146.42592        216.33566
239.44043        157.38049        204.07680
227.63002        141.26505        222.33176
230.17320        151.09445        194.01992
233.76845        152.97034        180.03829
231.08532        158.83389        191.88195
232.02112        168.71887        184.91747
230.35024        167.32457        211.89821
230.50329        173.14981        172.86180
227.52803        174.73093        211.69522
226.57505        182.37954        196.04785
230.70819        194.86243        174.48119
228.88645        193.89439        193.30153
227.69706        191.19741        211.80793
232.56373        201.76969        178.61475
233.98012        203.10209        195.33999
230.17361        208.23465        203.02637
229.26015        210.64139        186.72774
229.18781        211.32545        194.99503
229.97470        222.75910        189.36358
227.71458        232.73104        202.07993
230.69529        237.60643        202.71730
232.04074        240.75787        223.44176
227.66966        247.60716        187.53088
232.08225        261.19909        185.79010
229.54425        285.41833        178.17007
227.68355        283.14608        212.60509
231.06469        295.05071        191.55996
229.27767        292.05390        201.56286
231.74835        149.91762        187.66680
232.66516        152.72599        222.93265
232.92730        160.10215        211.63490
234.37812        166.06975        194.96719
235.62736        180.44386        200.27190
236.25263        186.10948        187.99727
230.60390        193.39610        182.49204
233.62971        217.19386        197.70009
232.40808        217.19543        208.37959
236.11702        223.65985        206.91949
234.34591        230.78324        222.24536
235.13620        231.97847        212.05185
232.06683        233.76153        236.15873
232.55322        241.39357        187.57544
238.12475        245.82679        204.13741
236.18896        244.56098        212.56050
232.22658        252.97937        187.72595
232.49487        267.31894        182.10142
232.19274        287.24796        182.22689
251.97948        138.09579        208.89625
237.36658        128.54716        222.39937
237.81487        131.96151        217.10653
238.14838        137.85346        225.74004
237.71039        144.14936        230.44367
235.92852        152.59909        212.56115
237.50775        152.28627        232.19009
243.25907        167.86225        179.66806
237.42777        167.34255        181.71724
241.89824        177.93015        172.09949
242.62333        178.88608        182.34969
238.10857        182.48964        182.25591
244.71308        182.43950        211.53457
237.42563        187.60270        182.17921
242.73762        188.94079        174.18867
237.66037        192.57294        206.04010
239.23008        207.87746        205.17030
237.73779        214.64793        211.32370
245.48517        244.30637        225.00226
238.94326        237.73592        212.39756
241.17236        268.08383        172.44424
237.84927        261.32681        202.55900
237.60465        271.83373        175.36078
237.40156        273.12736        182.51479
243.53010        270.95487        187.65417
237.89381        272.89902        219.54835
243.15836        282.94763        179.39233
238.00515        277.78729        217.05567
237.40855        282.06555        220.83430
245.61982        149.29975        196.24542
251.59517        156.99718        229.59121
242.75458        155.40007        183.76099
244.81850        175.11549        207.03297
244.52740        180.60649        191.16536
247.07268        187.39383        189.38199
245.02155        190.62591        216.50103
246.64083        195.33256        181.73202
242.68317        197.05585        206.24168
242.48196        202.57864        212.08404
245.57985        224.09828        219.55438
244.25779        219.15216        201.26690
245.42003        230.19944        211.70056
243.25116        242.75813        185.92127
256.63341        243.97684        197.28694
246.68851        257.29324        207.82781
245.77563        275.37167        190.37872
245.36290        267.15204        208.42045
246.46496        269.21823        218.38020
245.02293        272.68301        182.38533
244.51595        275.20006        210.31629
244.42290        280.61024        220.34293
242.69459        285.43484        230.92862
241.14773        287.33387        217.10478
244.88489        289.81337        222.66165
251.96505        147.21489        187.69126
247.19096        147.24270        202.53500
246.99168        147.39203        231.73454
246.94300        153.18950        213.65119
250.46508        155.97404        217.31313
246.82257        162.50821        222.63492
246.78528        193.31215        222.99474
247.46549        193.11313        228.04390
247.50047        200.80722        212.01215
247.42755        199.33982        222.47483
251.98144        230.52432        198.49860
246.80441        237.73559        217.89501
247.55617        237.49417        227.93410
251.20884        239.23738        207.54733
247.67331        252.87327        187.37323
247.13769        252.35758        228.03566
254.12895        255.23927        227.91620
252.47413        135.77338        197.12578
254.93993        142.02130        224.21896
252.42055        143.04196        192.96708
252.42741        150.83777        195.83583
252.32612        152.36166        186.39723
255.41926        160.28278        193.54491
252.32429        160.02627        210.02705
252.69780        157.46301        222.79446
256.19687        175.26678        202.97901
252.75230        167.27874        217.25255
252.41480        165.74885        222.80258
252.57775        186.65962        176.31806
253.59413        183.85869        182.73995
252.84121        182.04997        196.98019
252.74049        182.33480        212.13372
252.28252        187.65416        217.25205
252.10732        197.26052        212.45052
253.11421        198.97361        217.45344
253.22690        197.11868        223.91061
254.71947        225.08984        217.27648
252.31380        232.15383        212.06835
252.59094        232.32248        227.84342
258.40653        234.98140        224.94452
256.47619        245.17342        232.58840
259.21200        258.42100        206.12855
254.54944        270.90669        209.51092
252.34330        274.53701        198.65278
257.42533        147.23282        197.57142
257.33390        147.60269        227.78320
262.90406        155.87150        208.44614
257.44315        153.11749        207.32709
257.42728        152.69235        222.89464
258.45737        152.67969        229.29690
260.33010        164.36763        202.54303
260.36413        166.09964        209.11085
256.74060        184.18026        214.77718
257.56341        187.18885        220.82228
258.44952        223.09056        212.13329
260.84332        232.72362        204.37844
259.33777        249.36069        218.76850
256.90598        270.71349        202.93970
261.75206        142.68081        211.66849
262.01063        146.79988        217.81205
261.86684        167.10809        217.10029
261.44750        231.92195        217.08822
267.81429        252.73791        205.90731
