76.50040        122.74583        87.09843
68.43919        141.14535        113.33523
67.17251        117.95459        88.85202
66.43871        120.52508        102.27773
71.38529        129.74334        94.55622
68.56375        130.78644        107.65548
68.83021        129.65132        117.74265
75.64049        141.78281        102.74085
70.55398        135.88627        120.83177
76.92375        82.34624        147.65280
80.20349        98.92591        124.63496
72.27175        111.50963        99.29067
78.38145        127.94983        114.01604
84.54891        83.88535        131.66917
77.98279        88.12532        108.04065
89.22948        95.80057        118.05340
79.09603        110.44521        101.06927
83.20418        115.71264        117.75976
81.96444        119.59123        103.19167
77.61010        144.14588        118.31619
82.65944        81.04102        152.66132
82.74930        83.42624        146.06968
83.83774        93.89891        107.78915
82.51099        89.44580        123.25478
84.59062        107.48732        112.54155
82.74857        114.22150        82.31749
85.72722        120.44675        76.58467
82.56460        136.44358        122.35781
82.79464        145.91208        119.97858
91.32000        71.62281        129.44304
92.80104        72.16267        145.18988
89.24364        77.36105        138.34087
85.77929        82.83533        123.70286
88.01875        83.67548        144.27485
87.81664        80.79166        152.72575
88.06927        102.82008        79.45933
87.46647        102.03179        110.11600
88.23254        109.90967        87.41345
89.94959        112.97786        83.72400
87.72645        123.94966        88.07657
88.28699        127.98519        118.24241
87.29428        128.97406        82.71714
92.30730        142.10509        113.60749
88.16490        146.45587        123.00441
94.63035        66.18491        147.00096
96.90281        70.85299        174.49227
95.22874        76.70405        168.04320
92.79501        78.14798        153.94531
97.56006        83.84401        132.20221
94.97792        84.81296        142.54070
96.05734        87.73972        147.83603
93.27200        95.66115        128.86964
99.02707        106.02564        79.58625
93.01571        107.62279        87.28855
93.40484        115.05858        65.28380
95.35200        113.35424        71.94811
92.93647        112.82652        77.23166
96.22142        121.73836        79.17121
104.55010        118.03093        104.71853
97.20587        129.37005        102.11055
92.28385        133.95211        126.62095
95.19582        142.47429        129.47387
97.75133        151.23275        129.74214
100.43743        148.95817        112.17302
95.29481        152.80730        123.06257
100.89994        72.24766        139.15523
98.22857        77.48482        127.08743
98.88606        82.71620        171.89711
96.71451        92.79541        122.97293
96.99185        93.60001        155.33365
99.56711        107.05858        91.27091
96.99383        108.20201        67.07427
102.31062        107.43505        113.67536
96.51349        117.51359        87.59009
102.79410        124.24482        68.78401
100.31372        129.43132        95.55069
96.87704        155.85109        118.25994
97.93973        158.65322        123.89884
104.51932        63.05573        137.51189
103.75803        64.22978        150.23244
101.73421        73.47770        148.69806
105.28624        77.17801        162.57155
102.42278        77.35853        152.50600
104.27373        86.85123        145.97361
101.74112        87.45838        152.42656
102.75674        87.72666        161.56683
107.14098        94.22146        171.71112
102.23379        95.34658        122.98996
102.15470        95.01426        145.36836
106.37359        101.90449        155.19727
109.06371        98.38112        115.89694
102.31700        110.19306        64.43214
102.05722        112.56249        113.49557
105.49846        117.57980        81.97657
104.10562        118.67868        113.62933
101.95631        136.58837        97.36742
104.91113        140.97105        127.62849
110.80206        52.67528        148.60778
122.77430        61.56563        160.15083
110.83841        65.94428        142.82437
113.35820        75.71968        157.36842
114.04904        82.44593        172.42352
112.63963        94.58880        127.43157
111.29077        92.86769        163.46397
108.38557        105.92412        69.46895
115.71471        116.18442        74.05215
107.28525        107.36110        119.42511
107.28883        112.62759        67.19308
107.15221        117.87041        67.13826
107.31169        124.08751        78.38144
107.63471        130.84763        124.47368
107.40715        137.36546        112.68397
111.30749        146.37100        117.63230
107.32574        149.70226        126.37586
107.61543        156.22825        124.40287
117.10584        81.42996        140.48342
116.79536        84.96167        158.80795
112.77595        87.82388        136.59608
113.14959        88.09180        152.85655
119.10576        95.45616        142.71097
115.30075        96.40665        150.28819
115.33555        107.51226        82.76032
116.72510        110.97703        139.97388
110.52342        112.23108        117.84110
119.03949        129.34120        80.16450
115.76232        138.60927        107.32822
115.46160        136.37673        118.94870
112.96574        147.64981        102.07248
124.51550        147.56302        115.99891
118.79970        60.93837        143.08321
117.62796        69.57807        147.69524
117.65605        88.38084        130.27736
117.98961        87.39094        137.21783
117.90959        97.29109        87.91576
117.50006        98.13326        120.65702
119.19313        102.72161        157.55484
119.11640        114.79173        89.85512
117.79137        112.46050        83.06193
115.70755        118.09721        83.02390
117.97321        142.49401        117.21822
120.58790        148.88778        101.54164
123.20893        57.54713        172.34571
123.03380        77.90178        150.40708
124.36488        79.61955        165.59061
125.34278        90.65062        115.71365
129.97709        79.69013        126.95530
132.39847        96.22089        87.13720
125.70328        92.47166        122.78619
127.88514        94.29651        132.39117
122.58664        96.65367        99.39315
127.87993        97.01186        157.66499
120.60909        102.02564        96.47689
122.95504        102.02304        145.33544
122.69368        106.94240        143.40594
123.09373        115.84940        80.04598
123.58821        118.63726        136.96598
124.14459        113.04456        146.97112
122.58003        117.97176        142.71074
122.90287        123.13353        93.14648
130.53640        137.75391        108.42997
135.56428        124.08015        144.64861
121.82928        132.50534        92.80980
123.29858        142.47921        117.48611
120.64655        141.98008        126.01455
125.55369        152.76612        107.35871
128.39025        53.01710        167.07340
128.93961        59.16922        173.72574
130.89844        91.62808        97.32808
130.11493        100.67874        103.44831
131.79189        102.56128        136.91020
130.77965        107.55721        116.43439
132.23830        114.87377        153.84185
130.09260        117.99525        80.18142
128.94484        118.07780        87.86156
131.66264        124.70011        73.48457
133.90669        120.16515        94.23276
131.05408        126.98809        112.12870
129.92610        129.77093        96.54587
130.46177        131.82722        77.62770
130.95663        136.06626        84.39995
128.39571        129.93642        137.12222
128.15965        137.21725        115.19122
131.79035        75.88215        82.28890
131.88018        77.54783        90.46691
131.87328        76.84240        102.43661
133.80057        82.12292        114.24113
135.74446        92.04356        124.31616
134.83120        104.47696        82.66574
131.33170        107.02925        88.16465
135.43825        112.21093        122.92987
135.57703        122.98180        132.14624
131.69154        131.77687        87.88296
131.14065        137.18351        95.18542
131.59089        137.42509        102.12445
132.81449        146.85183        99.64687
137.24660        76.19610        95.57026
137.36939        83.54889        96.96005
137.10650        87.99506        80.88047
136.69732        89.84349        117.84141
138.57819        96.47741        94.49118
137.62534        96.71889        137.37826
137.16436        101.64735        123.93592
144.64959        104.55519        129.04180
137.17405        107.30878        138.93756
137.66575        118.43298        147.42602
138.01136        123.31549        82.63170
138.66482        128.83969        82.31141
138.11158        128.22093        93.20488
139.60944        131.07317        99.86045
136.56790        128.34927        107.41351
137.16342        132.81688        133.07490
137.67410        136.79242        101.89364
142.38258        77.92989        80.23657
145.93467        81.49608        93.58059
142.25035        85.12274        82.68804
145.87583        98.52239        156.83637
142.58236        96.64155        139.84974
144.52602        109.24645        138.24970
142.31979        106.77249        147.82711
147.06764        114.35780        156.67558
146.54906        107.34989        158.75452
142.90909        111.98217        126.09459
145.74164        122.74054        128.12116
148.11176        89.13019        92.83121
147.44031        92.64950        87.94893
150.60403        99.53402        140.43579
147.42724        109.63854        142.48989
154.38365        103.82894        150.57240
151.04541        115.04477        145.67477
147.58209        117.81673        137.56645
148.66467        130.23208        139.98765
155.85420        113.49399        133.41014
152.19537        123.88633        147.68128
157.57368        123.78337        132.48681
