79.89633        149.69694        114.08709
79.79129        138.56070        87.75264
80.88232        137.12990        107.47163
87.37182        158.05366        123.75216
83.36336        121.86618        117.68548
82.74615        133.77118        93.42466
83.09389        141.30939        91.43623
82.56622        145.39084        122.98733
85.42117        153.20825        103.27978
92.53779        99.50226        140.23605
90.91263        102.37272        152.80240
92.45727        110.98922        132.17079
88.18235        128.65489        87.49637
93.14390        128.35815        108.06158
93.63199        129.02405        88.16371
89.88434        137.42489        98.71887
91.70222        140.26211        85.57996
88.04630        144.55288        104.12897
91.84734        139.12172        115.14313
91.59973        140.02505        124.45561
88.21855        144.51316        117.85345
87.46569        147.63954        93.43021
94.30588        147.65925        119.04998
99.57561        157.88077        116.00751
95.76011        100.74640        158.18554
93.12212        107.44458        117.32279
93.28794        107.34317        123.54581
93.29096        118.01096        124.80655
93.37409        117.93345        135.43662
93.60232        139.78497        104.38397
95.20041        145.73601        98.42410
106.29091        91.22384        136.60437
98.67756        90.67884        177.71619
97.85467        93.26310        135.17811
107.70534        92.35722        153.22037
104.60557        96.79116        172.82017
98.72516        100.09618        133.63834
103.07039        105.05213        135.42528
98.04770        103.28665        128.61603
98.53925        103.34229        150.45534
98.36886        110.22161        114.46930
103.60658        110.93277        122.74078
98.49608        118.06258        116.05721
100.23364        123.04002        128.28987
98.55738        117.62624        134.73730
99.17638        123.08241        118.09421
112.39074        135.53931        112.71421
98.22024        128.31317        120.16845
105.74120        133.71112        82.41365
101.15797        134.30024        93.44350
97.56363        133.47286        124.27256
99.31550        142.85005        84.15168
98.07738        141.39687        105.91366
98.25813        139.25967        125.06313
95.95036        147.15724        93.22153
102.17024        145.13477        123.75550
97.90585        152.71103        107.53557
98.31038        155.86712        128.44829
104.23463        165.79323        129.58614
104.34604        82.57869        152.81793
103.50365        87.69232        160.05674
106.03191        89.53360        181.58111
106.10147        99.55283        142.15595
103.77400        98.31956        160.17899
105.81182        103.68806        149.64873
105.65564        116.08214        134.66392
105.54884        120.37305        87.77989
105.51612        127.11022        94.18083
104.43219        140.48965        94.83624
103.11402        145.88550        88.59594
108.06007        160.55773        134.80837
105.46483        163.41214        117.75398
105.70234        169.81355        123.62974
107.31987        82.24471        146.12879
108.20348        103.11943        177.43517
110.15636        110.89393        162.75054
112.23771        138.15911        88.94481
107.24351        153.28531        113.17102
110.12124        169.57072        117.99995
112.87114        75.87318        152.91506
115.25769        77.65998        147.84863
115.10959        83.15542        157.84102
113.32271        90.38022        146.48881
114.90486        89.96015        169.64189
113.00767        92.97121        179.50787
114.27617        100.57629        169.79212
112.09897        103.44152        138.01050
114.30695        103.27906        149.67232
112.55701        105.15268        157.77167
113.00176        106.99544        179.33464
113.13427        112.43567        151.31169
117.80180        112.45666        179.66258
115.05747        118.30130        86.83263
124.60166        114.72626        120.23817
112.58383        117.19182        123.65383
114.62085        117.83065        159.43790
112.55438        127.12866        76.32730
113.10160        122.61774        93.13022
115.39992        123.77312        117.86896
112.51139        128.28993        85.07229
115.38429        128.38017        103.27373
112.56295        133.36949        96.34850
116.13887        140.31890        79.64152
114.74498        156.55605        128.54284
112.44009        155.69517        134.46926
116.68350        162.83499        118.24182
112.46497        177.62905        128.79702
123.43059        73.43048        155.18424
122.97593        74.23280        169.66302
117.88705        82.74143        142.91628
117.77846        88.23795        159.90599
118.45128        90.67159        98.07127
122.60037        98.20132        88.88427
118.39496        97.80578        179.52496
117.94801        107.12703        154.91463
117.96724        110.73187        168.81370
117.98420        120.87518        164.08269
131.41915        115.07819        168.67969
118.18005        123.68564        73.89118
117.40336        123.13387        83.55160
115.84649        122.77019        98.65174
122.05423        128.40855        75.07049
118.08993        128.24069        89.59013
117.74116        135.25582        68.84116
120.68921        133.41875        92.05909
117.81395        138.46940        88.19637
118.62589        145.95226        108.18584
119.69702        147.73043        123.83775
119.55468        152.67617        132.28885
120.39846        157.24945        138.60313
117.91782        163.55863        133.28470
119.86117        170.27785        132.02836
122.92592        75.74070        163.54999
122.81823        83.11949        147.92808
123.59034        85.38825        153.35406
127.61330        84.90791        167.76998
126.51039        87.93754        87.65590
134.23976        91.87757        97.28542
123.01742        93.44604        162.84225
125.19817        95.67079        171.28419
126.08661        98.75782        82.84968
122.77263        98.51581        163.82808
128.82199        120.29493        152.27758
125.30647        106.15102        175.93035
123.29075        107.67413        118.51713
126.35665        114.01434        161.71283
124.69373        121.36919        78.92570
123.15322        123.36945        87.23352
123.27764        122.56583        162.89089
123.04926        133.68700        77.11668
122.85301        131.65542        117.67997
123.15940        140.66206        77.50075
123.08362        139.60657        88.51402
125.21243        143.79633        82.92610
123.13598        153.38452        122.62527
129.04854        158.63272        113.48274
123.34843        160.07596        122.94209
120.85760        163.30237        129.02815
128.66132        77.79335        163.13254
128.77070        83.38586        91.08397
130.17340        82.39179        151.33227
128.49769        88.37582        112.39254
127.65081        93.27186        83.29892
128.75616        96.48433        91.31601
128.73758        103.88443        168.59755
130.83980        112.00992        128.21798
130.08154        107.35374        140.74649
126.28970        117.63750        158.37337
130.17561        123.60388        92.24741
130.47771        123.67803        164.48935
129.22959        132.68519        80.65114
128.66808        133.76179        93.20323
137.33039        146.94178        90.71453
128.50542        152.95560        128.13719
128.22240        157.64594        135.51332
128.48185        158.36539        125.93288
132.31857        163.12803        122.58875
128.66531        168.60006        117.99656
133.58962        68.77069        169.16654
136.77059        75.60751        170.62361
134.61329        76.18366        182.65468
133.84552        77.67350        163.66893
133.75459        82.67023        93.32114
134.36396        81.97834        98.28035
134.69603        82.64035        161.29816
134.91808        89.55490        169.85147
131.60524        87.95692        177.57648
137.61277        98.79728        104.27256
133.10737        93.15540        175.77098
140.12821        97.66991        139.61093
136.60351        99.67373        157.28432
134.05286        98.36969        177.05875
133.83673        105.34882        103.18381
131.60060        103.05206        147.51917
134.64861        101.41336        172.51009
134.90620        111.00210        158.26241
130.29153        112.70055        98.60280
131.31333        112.49622        133.34242
134.28030        112.85283        138.98637
133.38577        112.92294        153.60799
134.95336        120.07055        106.33222
133.96539        118.46219        118.16171
133.11176        128.80061        88.09468
133.75735        128.26533        93.30179
134.88023        132.61203        99.19432
133.70284        128.82212        142.59073
140.43630        133.58859        147.25691
134.01732        138.60778        79.51816
138.47197        140.55700        103.46305
133.84721        141.02180        115.91269
135.87533        149.74388        98.15766
140.34520        147.78987        107.43710
135.13058        149.91152        117.99305
133.63902        153.77540        127.61700
134.63209        167.27017        110.41999
138.94003        78.23828        177.76742
142.79659        90.73167        106.13714
140.76212        103.72772        124.41119
138.44018        96.27491        133.81667
138.43421        103.00648        112.01210
139.87936        106.38503        134.39017
140.44052        107.61706        98.13421
137.54954        112.80861        109.24212
141.50081        110.44014        141.38168
138.68179        114.39349        147.69306
142.33817        119.58366        114.61016
141.08088        118.23880        133.79249
141.96638        118.63874        142.61365
144.35854        114.99503        157.90655
141.02775        122.02801        128.43225
139.00042        123.36368        163.61205
143.09492        134.14769        90.40756
142.84166        129.92169        163.40612
141.78308        141.59223        82.94880
142.07009        142.81595        120.67944
136.90926        138.28842        148.37432
145.16370        140.85628        158.28809
140.11637        144.38066        142.65920
136.76379        153.18907        107.51977
138.68824        153.68752        126.27374
136.64592        158.34518        107.38397
141.28082        161.18015        127.71845
140.04705        164.07014        123.06261
136.73028        161.70677        133.22416
139.41499        168.37546        116.75853
142.79581        83.60125        173.55733
142.28289        87.70950        163.59719
147.05986        93.50427        129.66360
145.06781        98.36336        98.22236
145.81238        95.79169        114.21732
146.93009        104.20727        91.11094
143.28138        107.43755        107.32621
140.74486        112.94529        99.33160
143.19573        112.19861        126.60658
143.58116        121.48116        103.68219
142.37711        117.99894        166.66147
142.53254        125.14068        149.60338
146.69411        124.10811        96.45352
147.53012        136.08074        103.93442
143.33635        136.64771        98.55775
142.48473        138.35551        141.92687
143.96427        155.61497        112.71293
142.61021        153.98560        117.80579
147.56061        167.67089        110.01545
149.68860        92.99589        94.32793
145.75787        103.66604        98.87292
149.43470        104.38833        110.06916
149.46318        104.76107        123.06543
149.57861        105.00896        133.41968
147.51602        107.87399        101.67392
148.06807        112.69862        91.62896
149.89693        112.35409        98.55466
147.79321        112.45221        107.76343
147.98070        112.59983        148.37170
153.53636        112.56036        170.11721
148.32164        123.78809        129.32358
150.46998        120.83209        146.20873
148.38082        131.28205        157.94254
147.84263        132.93469        153.00071
147.81311        140.84203        82.82854
150.37629        140.10833        141.53896
147.44547        144.40216        98.52783
147.76882        145.86132        153.08541
147.68226        147.27997        90.42758
147.64348        145.98862        118.27261
148.14095        148.35896        148.09084
147.28076        156.54085        98.52131
145.31254        157.87944        103.90633
148.15239        158.11191        117.71918
148.42027        163.45176        112.29398
153.22742        98.08026        104.66213
151.12495        97.84007        126.04115
157.18441        102.82776        95.24528
153.05415        111.37593        151.74730
153.14667        111.70098        163.17902
155.36755        112.46603        104.93909
153.04716        115.33986        134.72031
154.37855        117.50853        97.22986
153.25800        118.10813        160.12043
154.77253        118.07712        170.59395
156.52892        127.61938        170.32422
153.08336        127.73578        163.60936
153.01344        142.71030        90.57282
152.93023        138.19478        147.70721
156.78108        138.26533        155.34992
152.83238        145.68148        108.77380
153.01354        147.23198        153.24876
160.81116        93.45329        102.89114
159.78321        98.49742        105.23524
158.49180        103.45436        105.27953
158.77364        118.63249        140.78270
160.98768        112.73430        153.64821
160.77076        115.51583        164.42609
161.59523        129.18883        154.61954
158.79078        128.45834        138.21936
158.39957        128.71031        145.54318
158.03792        128.33090        163.02118
161.15849        137.71175        140.83185
157.91288        133.49294        148.02804
157.52138        144.45644        98.30185
157.98267        147.16879        152.66235
161.67873        107.38517        105.26135
166.30589        120.59061        147.91412
164.19968        121.89199        158.17359
161.36799        131.43690        128.82461
163.19480        138.91526        161.38223
163.37347        143.70783        149.50724
168.90304        117.78010        165.31723
169.34994        129.47074        147.76557
169.24452        133.99555        139.25871
168.45576        145.15197        152.81506
172.33381        141.87274        147.51558
